# .PCD v0.7 - Point Cloud Data file format
VERSION 0.7
FIELDS x y z rgb
SIZE 4 4 4 4
TYPE F F F U
COUNT 1 1 1 1
WIDTH 1091
HEIGHT 1
VIEWPOINT 0 0 0 1 0 0 0
POINTS 1091
DATA ascii
12.91639 -5.900249 -0.9350186 4288372152
12.999293 -5.8897972 -0.94101554 4288372152
-21.523182 -5.8417864 -0.92763889 4283608932
12.961575 -5.8000774 -0.93500239 4288372152
-21.347076 -5.7222753 -0.91769385 4283608932
-9.4517841 -5.7028289 -0.90898269 4284698707
13.171588 -5.6760468 -0.94697946 4288372152
-21.231512 -5.6195412 -0.91072786 4283608932
-9.4638481 -5.628931 -0.90664226 4284698707
-9.572957 -5.5502739 -0.91193557 4284698707
-9.4928188 -5.5656505 -0.9059633 4284698707
-21.070242 -5.5064464 -0.90177798 4283608932
13.185665 -5.4906487 -0.94195026 4288372152
14.160099 -5.1949573 -0.90788805 4288372152
13.493397 -4.7561021 -0.94432789 4288372152
13.412292 -4.6580153 -0.93581325 4288372152
13.382576 -4.6005478 -0.93230426 4288372152
13.420618 -4.5440578 -0.9337945 4288372152
13.47603 -4.517292 -0.93678921 4288372152
13.520416 -4.4855757 -0.93978333 4288372152
-19.635874 -4.4376683 -0.94921929 4283608932
13.573986 -4.4335461 -0.94227397 4288372152
13.628894 -4.4052973 -0.94576854 4288372152
-19.538912 -4.3513865 -0.94324803 4283608932
13.654263 -4.3666515 -0.94676179 4288372152
13.701658 -4.334938 -0.94975585 4288372152
-19.532406 -4.2848082 -0.94224471 4283608932
-19.498894 -4.1975641 -0.93924963 4283608932
-19.534996 -4.1244106 -0.94022977 4283608932
-19.555048 -4.0324249 -0.94021428 4283608932
-19.639772 -3.9523928 -0.9441756 4283608932
-19.67107 -3.8939495 -0.94515872 4283608932
-19.716164 -3.8220756 -0.94713557 4283608932
-19.737396 -3.7454853 -0.94712085 4283608932
8.8466139 -3.63994 -0.91573209 4283802815
8.8058262 -3.5591652 -0.90771842 4283802815
8.8307142 -3.4823377 -0.90745354 4283802815
8.9016905 -3.4238377 -0.91269076 4283802815
7.2357345 -3.1665821 -0.92829263 4283134801
11.14184 -3.1187453 -0.93358725 4288372152
10.947864 -3.0107954 -0.91257101 4288372152
11.018196 -3.0484288 -0.92057663 4288372152
-24.630291 -2.8277369 -0.90819174 4287502640
10.63195 -2.8166845 -0.94554085 4288372152
10.610615 -2.7582479 -0.94153047 4288372152
-24.568483 -2.7415972 -0.9052068 4287502640
-24.578438 -2.6646626 -0.90519553 4287502640
10.534976 -2.6686182 -0.9315151 4288372152
-24.598379 -2.6276596 -0.90518439 4287502640
-24.624304 -2.5522215 -0.90616721 4287502640
10.448114 -2.5948379 -0.92100275 4288372152
10.391521 -2.5126388 -0.91348827 4288372152
-24.682684 -2.4396825 -0.90863419 4287502640
10.330186 -2.4462876 -0.90547675 4288372152
-24.745073 -2.3272707 -0.91109955 4287502640
10.211515 -2.34726 -0.92545992 4288372152
-24.799971 -2.2537417 -0.91307157 4287502640
10.094611 -2.2343702 -0.94444019 4288372152
-24.853876 -2.1801815 -0.91504395 4287502640
10.012559 -2.1511905 -0.93342555 4288372152
10.061095 -2.1947603 -0.94043314 4288372152
-24.880857 -2.1424119 -0.91602999 4287502640
9.9829292 -2.1051447 -0.92941701 4288372152
-24.933796 -2.067831 -0.91800261 4287502640
9.9325409 -2.0388007 -0.92290497 4288372152
-24.976778 -1.9919448 -0.91997886 4287502640
-25.01277 -1.9158374 -0.92095768 4287502640
9.728797 -1.8587557 -0.93703955 4288372152
9.8095284 -1.8873038 -0.9063772 4288372152
-25.067753 -1.8403316 -0.92292947 4287502640
-25.100784 -1.7631406 -0.92490929 4287502640
9.6480637 -1.7981927 -0.9468621 4288372152
9.5821991 -1.7318547 -0.93834984 4288372152
-25.212765 -1.6508164 -0.92885572 4287502640
-25.159805 -1.6867726 -0.92687941 4287502640
9.5374708 -1.6778936 -0.93233973 4288372152
9.4897556 -1.6244287 -0.92532969 4288372152
-25.248835 -1.5727317 -0.93083429 4287502640
9.4327993 -1.5541333 -0.91731638 4288372152
9.4612703 -1.5887858 -0.92132294 4288372152
-25.304874 -1.4962696 -0.93280542 4287502640
9.3935232 -1.4874693 -0.91197014 4288372152
10.560308 -1.4679934 -0.91128647 4288372152
-25.344955 -1.4183121 -0.93478251 4287502640
10.521464 -1.4016633 -0.90627402 4288372152
9.3178501 -1.3986962 -0.92348653 4288372152
9.2444906 -1.313555 -0.91852009 4288372152
10.537488 -1.3318694 -0.9072603 4288372152
9.2058134 -1.2645502 -0.91326058 4288372152
10.474798 -1.2739558 -0.9002496 4288372152
9.176198 -1.2207434 -0.90900189 4288372152
10.674946 -1.2317182 -0.92057306 4288372152
9.1314297 -1.1650574 -0.929241 4288372152
9.0773306 -1.0868511 -0.92189217 4288372152
8.9193945 -1.0086455 -0.94721085 4288372152
9.0065746 -1.0076561 -0.91220981 4288372152
8.8496017 -0.91707814 -0.93769246 4288372152
8.928854 -0.92475039 -0.91319335 4288372152
8.8220453 -0.84498066 -0.93317765 4288372152
8.7928982 -0.76661497 -0.92866147 4288372152
8.8440361 -0.77997851 -0.91266382 4288372152
8.8171015 -0.69287032 -0.93081242 4288372152
8.8384514 -0.60502136 -0.93287718 4288372152
8.9692097 -0.596856 -0.90362465 4288372152
8.9104891 -0.51997846 -0.94144231 4288372152
8.9982729 -0.53317672 -0.90644455 4288372152
9.2266178 -0.498864 -0.93410307 4288372152
8.9019709 -0.4365032 -0.94009149 4288372152
9.0121593 -0.43122479 -0.90775657 4288372152
9.0827208 -0.35434937 -0.91607374 4288372152
9.1956882 -0.28209367 -0.93005836 4288372152
9.2553091 -0.25536904 -0.93705267 4288372152
9.2998753 -0.19796044 -0.94237405 4288372152
9.3094683 -0.11531185 -0.91702378 4288372152
9.3828592 -0.041901615 -0.93434191 4288372152
9.4271746 0.026229767 -0.90399468 4286326864
9.5817757 0.10096008 -0.92197943 4286326864
9.7302456 0.14748125 -0.9399702 4286326864
9.7821503 0.19944635 -0.91595984 4286326864
14.271786 0.27616695 -0.94395131 4281873562
14.212266 0.34149688 -0.93993974 4281873562
14.154924 0.38406035 -0.93493211 4281873562
14.134085 0.42761379 -0.93342441 4281873562
14.034912 0.51224613 -0.92590928 4281873562
13.957748 0.59687889 -0.9198941 4281873562
13.89118 0.66963357 -0.91488111 4281873562
13.818117 0.74189371 -0.90936804 4281873562
13.717329 0.8433556 -0.90184975 4281873562
13.761638 0.80376059 -0.90485692 4281873562
13.696017 0.88493049 -0.90084231 4281873562
13.800665 1.0858793 -0.90980721 4281873562
13.443956 1.1561618 -0.92079306 4281873562
13.265563 1.3422675 -0.945759 4281873562
13.306848 1.3046499 -0.94876593 4281873562
13.221712 1.3897848 -0.94275033 4281873562
13.169862 1.4363126 -0.93874174 4281873562
13.134953 1.4942255 -0.93673122 4281873562
13.072412 1.5694635 -0.9317174 4281873562
13.017443 1.6352978 -0.92820525 4281873562
12.984118 1.6818279 -0.92569679 4281873562
12.936226 1.7372687 -0.92168653 4281873562
12.892714 1.8135009 -0.9191727 4281873562
12.859838 1.8699334 -0.91716242 4281873562
12.868479 1.9323066 -0.91865146 4281873562
12.93225 1.9837893 -0.92464286 4281873562
12.849879 2.0323043 -0.91863358 4281873562
12.85753 2.09567 -0.91962248 4281873562
12.88142 2.1204219 -0.92261833 4281873562
12.904087 2.186264 -0.925107 4281873562
12.957767 2.2580473 -0.93059486 4281873562
13.115386 2.3699307 -0.94557685 4281873562
13.138132 2.4268646 -0.94906723 4281873562
13.457092 2.7402558 -0.90201652 4281873562
13.767997 2.8590744 -0.92849964 4281873562
13.951728 2.987802 -0.94547981 4281873562
15.184231 3.2719588 -0.94444513 4281873562
15.148527 3.3254371 -0.94243598 4281873562
15.105247 3.4026852 -0.94042295 4281873562
15.051937 3.4893444 -0.93840837 4281873562
-22.211847 3.5530529 -0.91463846 4282914097
15.040225 3.5611472 -0.93839657 4281873562
14.989644 3.631469 -0.93671799 4281873562
-22.466328 3.6641421 -0.92772669 4282914097
-22.292704 3.7062128 -0.91965878 4282914097
15.017583 3.8042984 -0.94135702 4281873562
15.055435 3.8889804 -0.94534373 4281873562
-22.041592 3.9073427 -0.90855157 4282914097
15.09135 3.9484065 -0.94933462 4281873562
-22.588066 3.9701929 -0.93675226 4282914097
15.021248 3.9553466 -0.94433272 4281873562
-22.284014 4.0210257 -0.92163497 4282914097
15.177744 4.0509167 -0.91881919 4281873562
-22.437811 4.1210089 -0.93068606 4282914097
-22.561785 4.2150955 -0.93772632 4282914097
-22.405214 4.2567201 -0.93066502 4282914097
15.413046 4.3237901 -0.90027863 4281873562
15.502077 4.3743 -0.90727168 4281873562
-22.458143 4.4099994 -0.9346748 4282914097
-22.360474 4.4267321 -0.92963719 4282914097
15.665133 4.4723506 -0.92025816 4281873562
-22.456572 4.5169687 -0.93566722 4282914097
-22.111151 4.5179491 -0.91853809 4282914097
-21.866894 4.607348 -0.90744114 4282914097
-22.013689 4.7090979 -0.91548944 4282914097
17.146311 4.9219079 -0.90220445 4283981171
17.230339 5.0051103 -0.90819263 4283981171
-21.638002 5.0807581 -0.90132576 4282914097
17.369423 5.1041579 -0.91817909 4283981171
17.055073 5.1567092 -0.90116799 4283981171
17.313337 5.161129 -0.91616994 4283981171
16.985912 5.5728464 -0.90410489 4283981171
17.073122 5.9880176 -0.91804463 4283981171
-21.548777 6.0125833 -0.9092344 4282914097
17.102192 6.0583706 -0.92103463 4283981171
-21.520483 6.1465006 -0.90921563 4282914097
17.138275 6.1316957 -0.92502433 4283981171
-21.51425 6.2166839 -0.910209 4282914097
-21.348343 6.2392154 -0.90214634 4282914097
-21.562309 6.3748202 -0.91421705 4282914097
5.4509697 7.5647163 -0.9251647 4280306524
5.467042 7.6373835 -0.93365872 4280306524
5.8989105 7.6467438 -0.92546141 4280306524
5.9559731 7.6397338 -0.9006626 4280306524
6.0330095 7.6583438 -0.94766164 4280306524
5.8338709 7.7289038 -0.94065356 4280306524
5.8812752 7.7184081 -0.90265489 4280306524
6.1016045 7.7163334 -0.92815703 4280306524
5.8015213 7.7997789 -0.94464719 4280306524
6.1993542 7.785162 -0.91015172 4280306524
6.3090777 7.8454795 -0.92264718 4280306524
5.8058343 7.8772235 -0.90639067 4280306524
6.3774967 7.8790722 -0.93064469 4280306524
6.4529848 7.9206057 -0.93964154 4280306524
5.5438218 7.9803252 -0.9441309 4280306524
5.5241709 8.0332413 -0.94762659 4280306524
5.4781728 8.1357965 -0.93461853 4280306524
5.3476424 8.1577263 -0.9486168 4280306524
5.535337 8.1787014 -0.90161526 4280306524
5.6196632 8.1902456 -0.90761441 4280306524
5.485487 8.2148352 -0.90161246 4280306524
5.9989772 8.2283201 -0.93561214 4280306524
5.4328537 8.2779036 -0.90460777 4280306524
5.5171928 8.2914267 -0.91060668 4280306524
5.6282153 8.2569809 -0.91460925 4280306524
5.802393 8.2840405 -0.92810732 4280306524
5.4795513 8.3474426 -0.91360247 4280306524
5.7484231 8.305727 -0.92660558 4280306524
5.3262305 8.3582191 -0.90510207 4280306524
5.1830549 8.4985962 -0.90959287 4280306524
5.2109962 8.4834824 -0.91059369 4280306524
5.4383597 8.4573164 -0.92159456 4280306524
5.4744339 8.4551325 -0.92359459 4280306524
6.1974082 8.4815006 -0.90159196 4280306524
5.3301587 8.5247002 -0.92109025 4280306524
5.3949304 8.5373077 -0.92558903 4280306524
5.2250266 8.5970783 -0.9215858 4280306524
5.3040009 8.5717077 -0.92358708 4280306524
5.1548991 8.6024656 -0.91758603 4280306524
5.1513906 8.6583309 -0.92358232 4280306524
5.0940776 8.749423 -0.92857689 4280306524
5.1481705 8.7456131 -0.93107665 4280306524
5.2530322 8.7026215 -0.93357855 4280306524
5.1330638 8.8469315 -0.94057024 4280306524
4.9058552 8.8799915 -0.9305709 4280306524
5.0704088 8.8991747 -0.94156766 4280306524
5.1224566 8.8918772 -0.94356751 4280306524
4.8713531 8.9403143 -0.93456775 4280306524
5.0105219 8.9254761 -0.94106674 4280306524
4.8298321 8.9994411 -0.93823165 4280306524
7.4227295 8.9894037 -0.94955134 4280306524
4.7828679 9.0137129 -0.93756485 4280306524
4.7599077 9.0737267 -0.94206178 4280306524
7.7541037 9.1026793 -0.90254217 4280306524
4.7514367 9.1795473 -0.92922276 4280306524
7.7226477 9.1814556 -0.90653521 4280306524
7.8860044 9.1967888 -0.91753417 4280306524
-2.1944337 9.2244253 -0.90444916 4281865366
-2.1211424 9.2119637 -0.90110362 4281865366
-2.0489743 9.2288637 -0.90142566 4281865366
4.6774278 9.2434101 -0.90855408 4280306524
7.7079368 9.2223358 -0.90853167 4280306524
7.9835372 9.2492065 -0.92652965 4280306524
-2.0163019 9.296874 -0.90808839 4281865366
4.5998898 9.2544231 -0.9348051 4280306524
4.5194597 9.3252459 -0.92715323 4280306524
4.9344263 9.3439569 -0.90754354 4280306524
8.0833149 9.3344736 -0.93852234 4280306524
4.5107436 9.4022541 -0.92704952 4280306524
20.823383 9.4998598 -0.94659907 4281030194
4.3902025 9.5608377 -0.90204495 4280306524
20.78158 9.5583858 -0.94559127 4281030194
4.3480029 9.6262045 -0.9068765 4280306524
20.754812 9.6248407 -0.94658256 4281030194
4.2772226 9.6724977 -0.90804315 4280306524
20.68095 9.6695051 -0.94357634 4281030194
4.2194529 9.7473192 -0.91254163 4280306524
4.2524137 9.7390766 -0.91354096 4280306524
4.1849165 9.793849 -0.91587418 4280306524
20.542406 9.8014784 -0.94055855 4281030194
8.6899605 9.852025 -0.9324773 4280306524
4.1179123 9.9358282 -0.92653722 4280306524
4.1591058 9.9035454 -0.92553705 4280306524
4.0651445 9.9627171 -0.92703801 4280306524
4.0196176 10.07468 -0.93603539 4280306524
3.986727 10.152594 -0.94253379 4280306524
3.9142427 10.204139 -0.94453484 4280306524
3.9623404 10.207724 -0.94703275 4280306524
3.8760116 10.357934 -0.93519777 4280306524
-5.3342762 10.44932 -0.94127667 4287710012
-5.2732282 10.448331 -0.93876225 4287710012
-5.2619429 10.508957 -0.94376057 4287710012
3.7805028 10.532395 -0.90252972 4280306524
3.8432608 10.549315 -0.90652621 4280306524
3.7122743 10.587113 -0.90519786 4280306524
3.6398473 10.611582 -0.90503395 4280306524
3.6149294 10.701215 -0.91253257 4280306524
3.565316 10.775602 -0.9175331 4280306524
3.5596704 10.844584 -0.9240315 4280306524
3.4826534 10.926571 -0.92920017 4280306524
3.3295033 10.999995 -0.93154031 4280306524
3.3769329 10.953237 -0.92853874 4280306524
-34.338997 11.042601 -0.9496395 4279545892
3.2667711 11.023264 -0.93154347 4280306524
3.4305613 11.00067 -0.93453443 4280306524
3.1514561 11.080381 -0.93404913 4280306524
3.2259266 11.07563 -0.93604469 4280306524
-34.220646 11.121158 -0.94658959 4279545892
3.1280715 11.128583 -0.93754959 4280306524
3.0810294 11.16504 -0.94005179 4280306524
-34.113235 11.202044 -0.94454366 4279545892
3.0455167 11.241354 -0.94655257 4280306524
-34.001862 11.281816 -0.94149637 4279545892
2.995338 11.266861 -0.9475553 4280306524
-33.9011 11.306407 -0.93845707 4279545892
-33.800671 11.388509 -0.93641371 4279545892
-33.75771 11.490266 -0.93639034 4279545892
-33.843529 11.636723 -0.94041157 4279545892
2.9932036 11.634645 -0.90554863 4280306524
2.8725443 11.696908 -0.90855616 4280306524
2.9262843 11.677837 -0.90805262 4280306524
-33.943207 11.788573 -0.94543761 4279545892
2.7914696 11.764759 -0.912561 4280306524
2.8478255 11.791625 -0.91605639 4280306524
2.5942404 11.867581 -0.91724128 4280306524
2.7620759 11.882524 -0.92256141 4280306524
22.410107 11.897224 -0.92531335 4281030194
-34.03196 11.938099 -0.94945973 4279545892
2.5173035 11.931268 -0.9215799 4280306524
2.6694319 11.907047 -0.9225682 4280306524
2.7168508 11.938499 -0.9265641 4280306524
22.28223 11.919145 -0.92131019 4281030194
2.4489853 11.979038 -0.92458487 4280306524
22.223534 11.976733 -0.92030317 4281030194
22.077841 12.032408 -0.91529602 4281030194
22.138769 12.020453 -0.91729772 4281030194
2.4055018 12.051019 -0.93058759 4280306524
22.008121 12.084056 -0.91328973 4281030194
21.898291 12.112919 -0.91028583 4281030194
21.924849 12.217086 -0.91327387 4281030194
21.794205 12.278221 -0.90976626 4281030194
21.733774 12.378995 -0.90925443 4281030194
21.744057 12.429596 -0.91124862 4281030194
21.800743 12.552601 -0.91623479 4281030194
-30.995827 18.439463 -0.94992113 4282105220
-27.103443 23.663324 -0.94629383 4281618063
-8.746089 27.344259 -0.90073293 4280306524
-8.8754807 27.456026 -0.90676475 4280306524
-9.0109444 27.733805 -0.91879892 4280306524
-9.1413584 27.843605 -0.92383111 4280306524
-9.2907238 28.007788 -0.93186826 4280306524
-9.4665966 28.249504 -0.94291234 4280306524
-22.642742 36.958141 -0.92650664 4283375901
-22.530857 37.035027 -0.92647201 4283375901
-18.565657 39.352119 -0.93030405 4280306524
-18.875874 39.69313 -0.94238853 4280306524
-19.057861 39.918205 -0.94943798 4280306524
-7.7637277 -39.724823 -0.85187155 4289286839
-6.4899964 -20.854126 -0.89704818 4286281519
-6.6027308 -20.762732 -0.89402163 4286281519
-6.5203843 -20.728912 -0.89104044 4286281519
-6.8030171 -20.617386 -0.88997418 4286281519
-6.7216077 -20.586573 -0.88799304 4286281519
-6.9071555 -20.506861 -0.88694912 4286281519
-6.8465767 -20.536453 -0.88696355 4286281519
-7.1215911 -20.407871 -0.88589776 4286281519
-7.1812315 -20.375277 -0.88488334 4286281519
-7.211441 -20.262098 -0.87987536 4286281519
-7.2530003 -20.183147 -0.87686485 4286281519
-7.2524147 -20.085245 -0.87286431 4286281519
-7.2910981 -20.00024 -0.8688544 4286281519
-7.3903241 -19.888681 -0.86582965 4286281519
-7.3202734 -19.890047 -0.86484653 4286281519
-7.4251604 -19.796608 -0.86182046 4286281519
-7.4609399 -19.707558 -0.85881114 4286281519
-7.5154195 -19.621445 -0.85529721 4286281519
-7.6851735 -19.475143 -0.85175449 4286281519
-7.6160879 -19.477505 -0.85077143 4286281519
-8.476429 -17.207184 -0.8875311 4286281519
-8.4915237 -17.041895 -0.87952513 4286281519
-8.4273167 -17.04627 -0.87754202 4286281519
-2.1965268 -16.941298 -0.85692561 4291278113
-8.4682474 -16.867664 -0.87052912 4286281519
-2.4249241 -16.860691 -0.85388428 4291278113
-2.3708851 -16.856649 -0.85289407 4291278113
-2.272584 -16.852758 -0.85191184 4291278113
-8.3756781 -16.563953 -0.85254967 4286281519
-8.4283152 -16.539337 -0.85253555 4286281519
2.1472514 -15.669905 -0.88654864 4286677831
2.1067863 -15.541459 -0.87754256 4286677831
2.0460737 -15.436292 -0.86953455 4286677831
1.9876629 -15.351096 -0.86352706 4286677831
-9.058507 -15.196834 -0.89934707 4286281519
-9.2083035 -15.072137 -0.8973037 4286281519
-9.2502623 -15.036351 -0.89729148 4286281519
-9.4252205 -14.952252 -0.89824116 4286281519
-9.3522902 -14.94034 -0.89526141 4286281519
-9.4304428 -14.857671 -0.894238 4286281519
-9.6047583 -14.823449 -0.89818835 4286281519
-9.5250263 -14.802371 -0.8942104 4286281519
-9.4540091 -14.79449 -0.89123029 4286281519
1.611697 -14.777346 -0.89447826 4286677831
1.5596099 -14.716085 -0.88947171 4286677831
1.5051359 -14.62886 -0.88246453 4286677831
-10.186478 -14.406603 -0.89701325 4286281519
1.4204555 -14.436068 -0.8674528 4286677831
1.3680573 -14.35482 -0.86144596 4286677831
-10.16479 -14.329273 -0.89301783 4286281519
-10.19126 -14.272198 -0.89100891 4286281519
1.316564 -14.268562 -0.85443914 4286677831
-10.21577 -14.214075 -0.88900042 4286281519
-10.277433 -14.113133 -0.88598013 4286281519
-10.222815 -14.131561 -0.88499647 4286281519
-10.276695 -14.021441 -0.88097823 4286281519
-10.534646 -13.955842 -0.88790077 4286281519
-10.358427 -13.972384 -0.88245308 4286281519
-10.445024 -13.929446 -0.88292658 4286281519
-10.306658 -13.925618 -0.87796718 4286281519
-10.744962 -13.870539 -0.89183623 4286281519
-10.664546 -13.856841 -0.88785982 4286281519
-10.590359 -13.894625 -0.88688278 4286281519
-10.833768 -13.849608 -0.8938092 4286281519
-10.911016 -13.77009 -0.89378393 4286281519
0.97875655 -13.661502 -0.89839411 4286677831
0.93245167 -13.590191 -0.89238799 4286677831
0.88709992 -13.516868 -0.88638198 4286677831
0.8637417 -13.468217 -0.88237882 4286677831
11.412796 -13.493 -0.88892448 4288372152
11.3736 -13.403523 -0.88291663 4288372152
0.73594689 -13.394156 -0.87536287 4286677831
0.81834829 -13.391898 -0.87637281 4286677831
0.68783671 -13.208876 -0.86035573 4286677831
0.77064514 -13.232608 -0.86336589 4286677831
11.303347 -13.237488 -0.87190205 4288372152
-11.771397 -13.166663 -0.89950371 4286281519
0.64477336 -13.154534 -0.85635012 4286677831
0.60432941 -13.14116 -0.85534501 4286677831
11.22604 -13.064511 -0.86088669 4288372152
-11.850822 -13.00918 -0.8954739 4286281519
-11.795091 -13.029476 -0.89449191 4286281519
-11.963363 -12.92782 -0.89693606 4286281519
11.177032 -12.925286 -0.85187441 4288372152
-11.791439 -12.865135 -0.8864876 4286281519
11.218976 -12.893267 -0.85287195 4288372152
-11.970382 -12.815557 -0.89243001 4286281519
-11.948477 -12.75322 -0.88843471 4286281519
-11.931018 -12.656178 -0.88343686 4286281519
-0.89501756 -12.682209 -0.89413971 4286677831
-11.956507 -12.604173 -0.8824271 4286281519
-0.84138155 -12.627745 -0.88964766 4286677831
0.33847898 -12.648284 -0.88830918 4286677831
-0.7894423 -12.591316 -0.88615531 4286677831
-0.72862035 -12.558734 -0.88266426 4286677831
-11.934153 -12.503015 -0.87643063 4286281519
-11.986989 -12.478676 -0.87841308 4286281519
-0.5820002 -12.469981 -0.85051864 4286677831
-0.44897127 -12.403329 -0.868204 4286677831
0.12421823 -12.432212 -0.86928093 4286677831
-12.053137 -12.35323 -0.87538773 4286281519
-0.40994895 -12.389656 -0.86620945 4286677831
-0.36165926 -12.372826 -0.86521614 4286677831
0.029527038 -12.365755 -0.86326849 4286677831
0.086329378 -12.392325 -0.86527592 4286677831
-11.966114 -12.342738 -0.8714149 4286281519
-0.3134625 -12.349999 -0.86322266 4286677831
-0.27372363 -12.319321 -0.86022806 4286677831
-0.21721232 -12.327365 -0.86073565 4286677831
-0.16002777 -12.3154 -0.85924327 4286677831
-0.11250204 -12.313105 -0.85924965 4286677831
-0.046414003 -12.338007 -0.86125839 4286677831
-12.095823 -12.206223 -0.87136894 4286281519
-12.025861 -12.249951 -0.86939269 4286281519
-12.111074 -12.108171 -0.86736053 4286281519
-12.154139 -12.075604 -0.86834562 4286281519
-12.167675 -11.976517 -0.86408758 4286281519
-12.192957 -11.85291 -0.86032486 4286281519
-12.320231 -11.753202 -0.86128026 4286281519
-12.267374 -11.776514 -0.86029816 4286281519
-12.210613 -11.795733 -0.85831708 4286281519
-12.311731 -11.653985 -0.85727918 4286281519
10.843439 -11.665064 -0.89075983 4288372152
10.933749 -11.654314 -0.89425904 4288372152
-12.349218 -11.562098 -0.85526347 4286281519
-12.438309 -11.535888 -0.85823369 4286281519
10.908999 -11.518534 -0.88674611 4288372152
10.995461 -11.540151 -0.89174825 4288372152
11.007903 -11.51722 -0.89174604 4288372152
-12.468676 -11.492033 -0.85722214 4286281519
-12.47826 -11.411266 -0.8547157 4286281519
-12.521125 -11.36033 -0.85419977 4286281519
10.885521 -11.317565 -0.87572688 4288372152
-12.516265 -11.284611 -0.8511982 4286281519
-12.5814 -11.236828 -0.85217506 4286281519
10.846888 -11.207219 -0.86871612 4288372152
-12.604439 -11.152002 -0.850164 4286281519
10.950196 -11.176052 -0.87171298 4288372152
10.827433 -11.117715 -0.86270744 4288372152
10.947872 -11.103416 -0.86770582 4288372152
10.967772 -11.055593 -0.86670107 4288372152
10.972172 -11.025729 -0.8656981 4288372152
10.991079 -10.708282 -0.85066593 4288372152
11.066135 -10.052079 -0.89659607 4288372152
11.0247 -9.9522333 -0.88958544 4288372152
11.058786 -9.9213219 -0.89058179 4288372152
11.030467 -9.8348732 -0.88457245 4288372152
11.106836 -9.8416548 -0.88857257 4288372152
11.173144 -9.8395119 -0.89257175 4288372152
11.140741 -9.7192717 -0.88455856 4288372152
11.139119 -9.657629 -0.88155162 4288372152
11.209453 -9.6584663 -0.88555104 4288372152
-19.460171 -9.6482124 -0.89670426 4290953082
11.178144 -9.571043 -0.8795414 4288372152
-19.51729 -9.5240116 -0.89667451 4290953082
-19.539429 -9.4592342 -0.8966617 4290953082
4.7599306 -9.3279839 -0.88852817 4286621738
-19.724569 -9.2061396 -0.89957583 4290953082
-19.594727 -9.2219152 -0.89362395 4290953082
-26.709654 -9.1489754 -0.88900888 4283608932
-19.759565 -9.1477251 -0.89955872 4290953082
-16.692459 -9.1205053 -0.88465577 4286281519
4.7013917 -9.1028452 -0.86451304 4286621738
-19.685915 -9.0383043 -0.89457703 4290953082
-19.807247 -8.9994564 -0.89903015 4290953082
4.7355666 -8.9968109 -0.85650671 4286621738
-26.345053 -8.9333029 -0.87412453 4283608932
4.7710381 -8.9306965 -0.8520028 4286621738
-26.151842 -8.776556 -0.86518198 4283608932
-19.898855 -8.7970371 -0.89948136 4290953082
-19.936316 -8.6643362 -0.89845747 4290953082
-25.856516 -8.633441 -0.85227865 4283608932
-19.972221 -8.5866261 -0.89843833 4290953082
-15.35559 -8.562973 -0.89909202 4286281519
-20.029898 -8.5175362 -0.89941198 4290953082
-14.959192 -8.4692974 -0.87422556 4286281519
-14.78861 -8.4977493 -0.86628717 4286281519
-14.782721 -8.4330587 -0.86428523 4286281519
5.9742498 -8.3032303 -0.86245692 4286621738
5.7974582 -8.2851801 -0.85012293 4286621738
5.884326 -8.2842417 -0.85545576 4286621738
12.066842 -8.042345 -0.86434078 4288372152
12.158866 -7.9697428 -0.86732966 4288372152
12.359821 -7.9387226 -0.8783223 4288372152
12.338809 -7.8712339 -0.87431359 4288372152
12.382817 -7.8324642 -0.87530768 4288372152
12.4168 -7.7877522 -0.87530106 4288372152
12.495151 -7.7827024 -0.88029909 4288372152
12.478265 -7.6655827 -0.87528336 4288372152
12.587746 -7.6803579 -0.88228357 4288372152
-15.861965 -7.5479622 -0.89884579 4286281519
-15.710781 -7.5372839 -0.88989908 4286281519
12.476732 -7.5459719 -0.87026691 4288372152
-15.812137 -7.4938359 -0.89485991 4286281519
12.415919 -7.4442925 -0.86225379 4288372152
12.45014 -7.412497 -0.86324877 4288372152
12.56363 -7.428268 -0.87124908 4288372152
12.688136 -7.4489923 -0.88024992 4288372152
12.786112 -7.4270673 -0.8852452 4288372152
-15.719438 -7.3302603 -0.88488197 4286281519
12.739077 -7.3467231 -0.87923473 4288372152
-23.396286 -7.2010345 -0.89306313 4283608932
12.686315 -7.1611958 -0.86920935 4288372152
-23.432739 -7.131824 -0.89404339 4283608932
-23.487047 -7.0681334 -0.89601761 4283608932
12.62126 -7.0729342 -0.86219788 4288372152
12.733716 -7.0837564 -0.86919749 4288372152
12.677214 -7.0019407 -0.86268675 4288372152
-23.514597 -6.9956717 -0.89600086 4283608932
12.666403 -6.9190979 -0.85917497 4288372152
12.78088 -6.9309149 -0.86717474 4288372152
12.772017 -6.8753605 -0.86516684 4288372152
13.243474 -6.8938684 -0.89616156 4288372152
12.858981 -6.8450356 -0.86916089 4288372152
12.938515 -6.7849565 -0.87215084 4288372152
-22.938971 -6.7485867 -0.86819273 4283608932
12.768925 -6.7473788 -0.86014825 4288372152
12.94388 -6.6867414 -0.86913633 4288372152
13.007217 -6.6688423 -0.87313259 4288372152
-22.691786 -6.6387143 -0.85627478 4283608932
13.295035 -6.6359229 -0.89112294 4288372152
12.932801 -6.5548158 -0.86411709 4288372152
13.08035 -6.5795193 -0.8751182 4288372152
13.233069 -6.5536351 -0.88411182 4288372152
12.80691 -6.5162115 -0.85511351 4288372152
13.363539 -6.4394979 -0.88909262 4288372152
13.103166 -6.3890662 -0.87008953 4288372152
13.432077 -6.3700371 -0.89108109 4288372152
13.224777 -6.3437047 -0.85308057 4288372152
13.153919 -6.1391168 -0.86605096 4288372152
13.275388 -6.1459961 -0.87404996 4288372152
13.034979 -5.9130826 -0.85101855 4288372152
13.136409 -5.9100595 -0.85801625 4288372152
13.091688 -5.8173704 -0.85200274 4288372152
13.258359 -5.8177915 -0.86299998 4288372152
13.499153 -5.7502704 -0.87698555 4288372152
13.351147 -5.6382999 -0.86397058 4288372152
13.406507 -5.6134939 -0.86696583 4288372152
13.322618 -5.5292597 -0.85895401 4288372152
13.362327 -5.5223055 -0.8619523 4288372152
-20.980423 -5.4134455 -0.89580327 4283608932
-20.811167 -5.3001003 -0.88585633 4283608932
-20.456404 -5.1759377 -0.86797762 4283608932
13.789388 -5.1811838 -0.88189155 4288372152
13.945703 -5.1776714 -0.89288855 4288372152
14.078288 -5.1156945 -0.89987671 4288372152
-20.361568 -5.0837712 -0.86200488 4283608932
14.089609 -5.071095 -0.89986944 4288372152
-20.239897 -4.9858041 -0.85504168 4283608932
13.626343 -4.8571515 -0.8628422 4288372152
-20.201136 -4.8419151 -0.85104364 4283608932
13.542553 -4.7798743 -0.85483098 4288372152
13.615119 -4.4885302 -0.85328239 4288372152
13.660343 -4.4449244 -0.85477453 4288372152
13.701725 -4.4112291 -0.85776842 4288372152
13.740108 -4.3765445 -0.85976219 4288372152
13.780502 -4.3428512 -0.86175603 4288372152
13.827891 -4.3101482 -0.86374992 4288372152
13.873627 -4.2655578 -0.86624193 4288372152
13.944067 -4.2046185 -0.87023091 4288372152
13.997168 -4.1506181 -0.8727212 4288372152
14.044566 -4.1169291 -0.87571502 4288372152
14.16109 -4.0327101 -0.8816995 4288372152
14.210681 -3.9747541 -0.88418925 4288372152
14.278305 -3.9227409 -0.88767976 4288372152
14.307707 -3.8831158 -0.88967276 4288372152
14.350115 -3.8464613 -0.89166611 4288372152
14.407393 -3.8023775 -0.89515805 4288372152
8.9191551 -3.6919577 -0.86673957 4283802815
8.8914986 -3.6483502 -0.86173242 4283802815
8.8552217 -3.569392 -0.85505223 4283802815
8.8600292 -3.5080996 -0.85370743 4283802815
8.9134169 -3.4659579 -0.85719824 4283802815
8.9350452 -3.4263058 -0.85769039 4283802815
8.9875402 -3.4153886 -0.86268699 4283802815
7.2917199 -3.1671538 -0.86769068 4283134801
-27.974136 -3.1316891 -0.88695544 4282926421
-28.032274 -3.0493462 -0.88892514 4282926421
-27.885166 -2.9000919 -0.88196588 4282926421
-27.835148 -2.9391139 -0.88098878 4282926421
-27.909422 -2.8137062 -0.88294792 4282926421
10.424928 -2.8325522 -0.85854739 4288372152
10.414385 -2.7959039 -0.85654086 4288372152
10.544372 -2.7602348 -0.8675319 4288372152
-27.82795 -2.7170405 -0.87996918 4282926421
10.606601 -2.7240772 -0.87302411 4288372152
-27.776379 -2.6242936 -0.87697935 4282926421
-27.728811 -2.5316734 -0.87498808 4282926421
-27.680246 -2.4390223 -0.87299716 4282926421
10.285649 -2.4027147 -0.8994692 4288372152
-27.653467 -2.3926177 -0.87200266 4282926421
10.267107 -2.3640926 -0.89746225 4288372152
10.205313 -2.3007152 -0.88945115 4288372152
-27.572933 -2.2989547 -0.86802381 4282926421
-27.636143 -2.215785 -0.87099147 4282926421
-27.6105 -2.1268318 -0.86899215 4282926421
10.028177 -2.1294043 -0.86742103 4288372152
9.9756508 -2.0858355 -0.86141342 4288372152
-27.520983 -2.0328853 -0.86601675 4282926421
9.9056253 -2.0392966 -0.85340548 4288372152
9.9659081 -1.9709704 -0.85839128 4288372152
-27.390524 -1.9366525 -0.86005658 4282926421
-27.461725 -1.8547273 -0.86302131 4282926421
9.9684505 -1.8759131 -0.8568728 4288372152
-27.426964 -1.8080709 -0.86202979 4282926421
9.7322979 -1.7947257 -0.8958602 4288372152
9.9689093 -1.7960414 -0.85535717 4288372152
-27.396318 -1.7199506 -0.86003256 4282926421
10.033245 -1.7171608 -0.86034089 4288372152
10.044116 -1.6650158 -0.86033058 4288372152
-27.335722 -1.6298919 -0.85804653 4282926421
9.6354027 -1.6234368 -0.88232762 4288372152
9.5519514 -1.5597426 -0.8506493 4288372152
-27.362022 -1.5445651 -0.85802794 4282926421
9.4220419 -1.4382968 -0.85529327 4288372152
9.137516 -1.1714922 -0.87724227 4288372152
9.1028605 -1.1244692 -0.87223297 4288372152
9.0756989 -1.0779417 -0.86922365 4288372152
9.0225153 -1.0053463 -0.86154252 4288372152
8.9764643 -0.95321047 -0.85619885 4288372152
8.9368191 -0.9066847 -0.85068953 4288372152
8.9011679 -0.83805197 -0.89717549 4288372152
8.8869534 -0.74434352 -0.89415604 4288372152
8.8971624 -0.68033272 -0.89514256 4288372152
8.8918152 -0.63347971 -0.89413279 4288372152
9.1028595 -0.29199141 -0.86606061 4288372152
9.1738129 -0.21577656 -0.87404466 4288372152
9.2172518 -0.17420492 -0.87903601 4288372152
9.2627897 -0.13956192 -0.88452876 4288372152
9.3257704 -0.060872763 -0.89201248 4288372152
9.5087442 0.020785872 -0.85499579 4286326864
14.6123 0.04586288 -0.85132533 4281873562
9.5631981 0.06582199 -0.86098659 4286326864
14.506062 0.11729676 -0.86747938 4281873562
9.6229439 0.17123643 -0.86796522 4286326864
14.419855 0.20588797 -0.86146379 4281873562
14.35766 0.29398438 -0.85644829 4281873562
14.270555 0.37020266 -0.85043478 4281873562
-13.596742 0.77586412 -0.86455309 4291047848
-13.614249 0.83883834 -0.86655712 4291047848
-13.653719 0.90349835 -0.87056935 4291047848
13.636631 0.93442464 -0.89583325 4281873562
-13.725938 0.95036954 -0.87659466 4291047848
13.600244 0.98589879 -0.89382398 4281873562
13.531945 1.0225247 -0.8878172 4281873562
13.522349 1.1066664 -0.88780224 4281873562
13.396897 1.1601212 -0.87779212 4281873562
13.385963 1.2219911 -0.87778103 4281873562
13.331031 1.2799017 -0.87377048 4281873562
13.288746 1.3175192 -0.87076354 4281873562
13.278466 1.3581067 -0.87075627 4281873562
13.225112 1.4051292 -0.86624753 4281873562
13.154123 1.4704664 -0.86173552 4281873562
13.103579 1.547684 -0.85822147 4281873562
13.067677 1.605598 -0.85571092 4281873562
13.016344 1.6506429 -0.8527025 4281873562
-27.650192 2.0726216 -0.85879475 4279545892
-27.71109 2.162714 -0.86181122 4279545892
12.945127 2.1877487 -0.85360706 4281873562
12.978912 2.2352738 -0.85659909 4281873562
-27.801155 2.2775049 -0.86583698 4279545892
13.022705 2.28478 -0.86059082 4281873562
13.013484 2.325376 -0.86058366 4281873562
-27.891232 2.3922963 -0.86886269 4279545892
13.108306 2.3837934 -0.86857444 4281873562
13.17062 2.4372609 -0.87506574 4281873562
13.175809 2.5026131 -0.87655443 4281873562
13.32657 2.5951924 -0.88904005 4281873562
13.43332 2.6808426 -0.89952642 4281873562
15.012322 3.5126204 -0.85940415 4281873562
15.001182 3.5591693 -0.85939646 4281873562
14.991009 3.6190891 -0.85988665 4281873562
15.019304 3.7126818 -0.86337173 4281873562
15.025626 3.7889454 -0.86535954 4281873562
15.071983 3.8756075 -0.86984611 4281873562
15.093386 3.9315679 -0.8723374 4281873562
15.131308 3.9909947 -0.87632823 4281873562
15.217167 4.1157923 -0.88430929 4281873562
15.280118 4.1841335 -0.88929915 4281873562
15.346079 4.2534661 -0.895289 4281873562
-21.713142 4.5043879 -0.89839035 4282914097
-21.484018 4.6804819 -0.88929367 4282914097
-21.537807 4.7792978 -0.89330751 4282914097
-21.330198 4.8356733 -0.88322663 4282914097
-21.404808 4.9564562 -0.88824683 4282914097
-21.1707 5.0729508 -0.87815249 4282914097
-21.452934 5.1066322 -0.89225531 4282914097
-21.241953 5.15944 -0.88317358 4282914097
-21.181129 5.2130218 -0.88014764 4282914097
16.884867 5.2201414 -0.89215666 4283981171
16.875839 5.2746348 -0.89214832 4283981171
-21.38842 5.334528 -0.8922171 4282914097
16.854801 5.326158 -0.89214039 4283981171
-21.21142 5.3586788 -0.88414985 4282914097
16.792721 5.3935428 -0.89012957 4283981171
16.829763 5.3766923 -0.89113253 4283981171
-21.346119 5.4808707 -0.89169228 4282914097
-21.291204 5.5534749 -0.89016736 4282914097
-21.284996 5.6216688 -0.89116085 4282914097
-21.261915 5.6853676 -0.8901484 4282914097
-21.401596 5.7938447 -0.89919341 4282914097
-21.261395 5.8261008 -0.89213955 4282914097
-21.196669 5.8775868 -0.8901124 4282914097
-21.174465 5.9770017 -0.89009809 4282914097
-32.873795 6.9239745 -0.86940128 4279545892
-22.991209 7.167253 -0.85869551 4282914097
19.869041 7.3212347 -0.86088204 4291004823
19.788055 7.3618913 -0.8578757 4291004823
19.748129 7.4174047 -0.85686767 4291004823
19.655697 7.4873075 -0.85385722 4291004823
5.4087229 7.5509605 -0.89416558 4280306524
19.558331 7.5909142 -0.85084206 4291004823
19.64031 7.5522327 -0.85384816 4291004823
6.0221634 7.687273 -0.88965893 4280306524
5.8597565 7.7972007 -0.88798118 4280306524
6.338995 7.8214612 -0.85664958 4280306524
5.6025596 7.9232416 -0.88263571 4280306524
6.5463948 7.9451437 -0.87964004 4280306524
19.357567 8.1808081 -0.8527602 4291004823
5.6364651 8.2863426 -0.851107 4280306524
5.7041416 8.2860098 -0.85510707 4280306524
19.299845 8.298811 -0.85274386 4291004823
5.5297394 8.3551579 -0.85060185 4280306524
5.5271602 8.4070072 -0.85559797 4280306524
19.365263 8.4346142 -0.8577264 4291004823
5.4996881 8.5965643 -0.87058431 4280306524
6.2864981 8.5956821 -0.85058284 4280306524
19.467663 8.5525579 -0.86471164 4291004823
19.502945 8.6407871 -0.86870033 4291004823
5.0603528 8.6798096 -0.85358173 4280306524
5.1457367 8.6992531 -0.85957962 4280306524
5.2964525 8.68293 -0.86657953 4280306524
4.9666696 8.7392187 -0.85357887 4280306524
5.3169827 8.7930021 -0.877572 4280306524
19.625402 8.7686396 -0.87668455 4291004823
5.2692828 8.8381519 -0.87856942 4280306524
4.8406172 8.8716755 -0.85957229 4280306524
5.3297405 8.873703 -0.88556659 4280306524
4.9207277 8.9165592 -0.86806852 4280306524
5.0334973 8.9183512 -0.87356693 4280306524
19.764904 8.9044189 -0.88566792 4291004823
5.0310483 8.9772177 -0.87856334 4280306524
19.842178 8.9767675 -0.89065909 4291004823
4.7850981 9.0376444 -0.87256342 4280306524
4.8800259 9.0090942 -0.87456357 4280306524
5.0245667 9.0331182 -0.88356006 4280306524
7.6413727 9.0284157 -0.89054847 4280306524
7.5426435 9.0855417 -0.88854325 4280306524
4.8126593 9.1901131 -0.88755435 4280306524
4.7466707 9.2045231 -0.88555479 4280306524
-2.2079096 9.2906799 -0.85361934 4281865366
-2.1590102 9.2787046 -0.85111105 4281865366
7.9747419 9.279108 -0.85502708 4280306524
8.0516386 9.2509565 -0.8575297 4280306524
-2.2567334 9.3066568 -0.85612774 4281865366
-2.1184778 9.3018923 -0.85277158 4281865366
-2.0473187 9.3279791 -0.85409397 4281865366
4.5753222 9.3019962 -0.88655305 4280306524
8.0861902 9.3185339 -0.86352378 4280306524
8.2410479 9.4055986 -0.87851626 4280306524
4.4432578 9.4790974 -0.89721411 4280306524
4.5037441 9.4517088 -0.89754725 4280306524
4.6216002 9.6095476 -0.85153651 4280306524
4.431797 9.7187395 -0.85286981 4280306524
4.5184522 9.7051172 -0.85553467 4280306524
4.2311354 9.8081274 -0.85253865 4280306524
4.2651172 9.8018713 -0.85353786 4280306524
4.3783269 9.8054905 -0.85853416 4280306524
4.2120218 9.8901443 -0.85953581 4280306524
4.3368292 9.8567219 -0.86153316 4280306524
4.1785493 9.9413309 -0.86253488 4280306524
4.1474042 9.9765263 -0.86503452 4280306524
4.0272894 10.111313 -0.87203372 4280306524
21.413048 10.157036 -0.8515197 4281030194
3.9717827 10.20265 -0.87903249 4280306524
3.9409986 10.266827 -0.88353151 4280306524
21.406532 10.277042 -0.85350472 4281030194
3.9256299 10.321884 -0.88853019 4280306524
-5.3136702 10.430348 -0.86477149 4287710012
-5.254549 10.432901 -0.86325765 4287710012
3.8762896 10.437831 -0.89719504 4280306524
21.398199 10.437717 -0.8554846 4281030194
21.263245 10.454659 -0.85048169 4281030194
3.5796814 10.845394 -0.85153037 4280306524
3.6145744 10.835078 -0.85152882 4280306524
3.4760475 10.93263 -0.85653371 4280306524
3.5586193 10.921516 -0.8575294 4280306524
21.084217 10.903124 -0.85242558 4281030194
3.3465323 11.002492 -0.85853928 4280306524
3.4071939 11.012888 -0.86103547 4280306524
21.089722 11.010756 -0.8554126 4281030194
3.3650432 11.120207 -0.86953533 4280306524
3.3184676 11.15464 -0.87153733 4280306524
3.2485504 11.240273 -0.87720633 4280306524
3.1786976 11.329913 -0.88354212 4280306524
3.2103748 11.304609 -0.88154066 4280306524
3.1458015 11.414691 -0.89004248 4280306524
3.1045706 11.473577 -0.89354402 4280306524
-25.868507 11.536618 -0.88347852 4281434437
3.0596871 11.520515 -0.89704615 4280306524
3.0306869 11.558296 -0.89954746 4280306524
-25.961042 11.770656 -0.89049792 4281434437
2.9245646 11.87291 -0.85221618 4280306524
2.8551617 11.964951 -0.85805321 4280306524
2.8142145 12.041364 -0.86355513 4280306524
2.7536602 12.09668 -0.86722571 4280306524
2.5558677 12.226205 -0.87457317 4280306524
2.6126513 12.212557 -0.8745687 4280306524
2.6805999 12.211452 -0.85122991 4280306524
2.5255141 12.271539 -0.87757516 4280306524
2.5216048 12.349554 -0.8835746 4280306524
2.4955335 12.414834 -0.88857609 4280306524
-7.9611511 26.41975 -0.85754049 4280306524
-8.0967941 26.573595 -0.86557347 4280306524
-8.1820574 26.706362 -0.8705945 4280306524
-8.3206263 26.863277 -0.87862837 4280306524
-8.4583025 27.014179 -0.88566208 4280306524
-8.6120529 27.213409 -0.89469999 4280306524
-16.277903 37.293022 -0.85668433 4280306524
-16.503126 37.492126 -0.86374485 4280306524
-16.711172 37.649883 -0.86980093 4280306524
-16.922182 37.808716 -0.87585801 4280306524
-17.185844 38.083656 -0.88492906 4280306524
-7.6096907 -39.592758 -0.84790438 4289286839
-5.5411811 -22.711256 -0.83926892 4286281519
-6.0245991 -22.692589 -0.84316266 4286281519
-5.9402752 -22.659794 -0.84118122 4286281519
-6.0789809 -22.614811 -0.84115022 4286281519
-5.8288541 -22.524481 -0.83420521 4286281519
-5.5591798 -22.491747 -0.8292641 4286281519
-5.5696373 -22.248098 -0.81926084 4286281519
-5.6885386 -22.139694 -0.81623435 4286281519
-5.566946 -21.959198 -0.80626023 4286281519
-7.5546923 -21.783361 -0.82480448 4286281519
-7.0416718 -21.718756 -0.81492537 4286281519
-7.6002908 -21.699499 -0.82179302 4286281519
-7.1622472 -21.633564 -0.81289655 4286281519
-7.5393686 -19.461714 -0.84879005 4286281519
-7.6722555 -19.271114 -0.84175593 4286281519
-7.7069888 -19.186056 -0.83874661 4286281519
-7.7369294 -19.090904 -0.83473837 4286281519
-7.8742824 -19.004316 -0.83370352 4286281519
-7.8128438 -19.023815 -0.83371896 4286281519
-7.7418532 -19.021122 -0.83173656 4286281519
-7.9156256 -18.940405 -0.83169264 4286281519
-7.9397874 -18.835146 -0.82768559 4286281519
-7.978282 -18.763186 -0.82467526 4286281519
-8.0330858 -18.653683 -0.82066041 4286281519
-7.9774232 -18.683289 -0.82067472 4286281519
-8.1151657 -18.604752 -0.82013923 4286281519
-8.1694784 -18.495253 -0.8166244 4286281519
-8.208849 -18.43132 -0.81461376 4286281519
-8.2214317 -18.306839 -0.80860925 4286281519
-8.2454243 -18.284466 -0.80860293 4286281519
-8.350956 -18.217176 -0.80757523 4286281519
-8.2828484 -18.218496 -0.8055926 4286281519
-8.3625212 -18.094679 -0.80257082 4286281519
-8.3991604 -16.360977 -0.84254098 4286281519
-8.3584337 -16.162369 -0.83154929 4286281519
-8.3620949 -16.110573 -0.82954764 4286281519
-8.371376 -16.008034 -0.82454389 4286281519
-8.5050697 -15.900694 -0.82250708 4286281519
-8.4324379 -15.944236 -0.82302696 4286281519
-8.5239334 -15.819366 -0.81950098 4286281519
-8.5657034 -15.722665 -0.81548852 4286281519
-8.4890289 -15.699744 -0.8125087 4286281519
-8.5797262 -15.634235 -0.81148356 4286281519
-8.5975733 -15.554887 -0.8084777 4286281519
-8.6347256 -15.507961 -0.8074671 4286281519
-8.6805439 -15.477225 -0.80645424 4286281519
-8.7108192 -15.391225 -0.80344486 4286281519
-8.8061991 -15.30892 -0.80241781 4286281519
-8.752656 -15.326478 -0.80143261 4286281519
1.8716891 -15.1717 -0.84951198 4286677831
1.817701 -15.115454 -0.8455053 4286677831
-9.4877186 -14.893599 -0.80272257 4286281519
1.7233729 -14.876771 -0.82849205 4286677831
-9.5529432 -14.818074 -0.80070281 4286281519
1.6701815 -14.808519 -0.82348526 4286677831
-9.6423855 -14.778601 -0.80217683 4286281519
-10.156205 -14.742644 -0.81702942 4286281519
-9.6893539 -14.702105 -0.80016208 4286281519
-9.7722054 -14.675926 -0.80113798 4286281519
1.6133732 -14.69932 -0.81547761 4286677831
-9.8375921 -14.626356 -0.80111831 4286281519
1.5587485 -14.603092 -0.80847037 4286677831
-9.9472675 -14.590452 -0.80308622 4286281519
-9.8488874 -14.594764 -0.80011451 4286281519
1.4778155 -14.519747 -0.83846021 4286677831
-10.076284 -14.440469 -0.80004591 4286281519
-11.559362 -14.248449 -0.84260184 4286281519
-11.584922 -14.189413 -0.84159237 4286281519
1.2661549 -14.188293 -0.84843254 4286677831
-11.375175 -14.115786 -0.83065379 4286281519
1.2168136 -14.113009 -0.84242612 4286677831
11.482501 -14.122677 -0.82447648 4288372152
11.782973 -14.112996 -0.83497965 4288372152
-11.579126 -14.072232 -0.83559072 4286281519
1.1662997 -14.025746 -0.83641934 4286677831
-11.59865 -13.98465 -0.83258218 4286281519
1.1180301 -13.955454 -0.8304131 4286677831
11.758084 -13.993583 -0.82896966 4288372152
-11.062487 -13.867966 -0.80824113 4286281519
-2.2772455 -13.894278 -0.83991128 4281836699
1.0913088 -13.881844 -0.82540929 4286677831
1.0429004 -13.802557 -0.81940293 4286677831
-11.580568 -13.789957 -0.82358187 4286281519
-11.514134 -13.799028 -0.8216024 4286281519
11.634177 -13.75804 -0.81394881 4288372152
-11.588557 -13.713511 -0.82057714 4286281519
0.99675077 -13.741241 -0.81439692 4286677831
-11.613117 -13.655459 -0.8195678 4286281519
0.94930005 -13.659945 -0.80839056 4286677831
0.75864774 -13.645837 -0.80636746 4286677831
-11.620116 -13.578989 -0.81656337 4286281519
0.90407479 -13.59462 -0.80338466 4286677831
-11.594398 -13.50657 -0.81256902 4286281519
-11.591626 -13.420865 -0.80856723 4286281519
-11.624928 -13.37502 -0.80755556 4286281519
-11.672852 -13.345525 -0.80853987 4286281519
-11.673024 -13.261904 -0.80453718 4286281519
-11.727362 -13.19875 -0.80451834 4286281519
-11.677057 -13.185364 -0.80153346 4286281519
-11.721652 -13.110985 -0.80051732 4286281519
-11.782258 -13.095801 -0.80249804 4286281519
-1.2048361 -12.962852 -0.84609222 4286677831
-1.159433 -12.914018 -0.84209931 4286677831
0.49756211 -12.905799 -0.83633041 4286677831
0.57758188 -12.940552 -0.83934045 4286677831
-1.1012254 -12.835451 -0.83510834 4286677831
0.43681407 -12.848749 -0.83132255 4286677831
-1.0456115 -12.780936 -0.83011687 4286677831
11.184153 -12.772913 -0.84586126 4288372152
-0.98194861 -12.74028 -0.8266266 4286677831
-0.9192555 -12.700646 -0.82313609 4286677831
-0.85569823 -12.653503 -0.81864554 4286677831
0.3558107 -12.689013 -0.81831151 4286677831
-0.81364697 -12.61175 -0.81515181 4286677831
0.31582829 -12.641645 -0.81430632 4286677831
-0.75360221 -12.59268 -0.81316066 4286677831
0.27686059 -12.596263 -0.81130117 4286677831
11.067255 -12.599095 -0.83284527 4288372152
-0.66976899 -12.525192 -0.83150607 4286677831
0.2099126 -12.518082 -0.8405422 4286677831
11.069849 -12.524411 -0.82883877 4288372152
-0.61831743 -12.489785 -0.84018016 4286677831
0.16107963 -12.468117 -0.80028588 4286677831
-0.52205622 -12.434266 -0.84686041 4286677831
11.056274 -12.43087 -0.82383043 4288372152
11.152565 -12.423061 -0.82833028 4288372152
11.089343 -12.237612 -0.81681329 4288372152
11.103824 -12.127727 -0.81213665 4288372152
-30.046457 -11.282194 -0.82496661 4283608932
-12.614989 -11.073769 -0.84765732 4286281519
-29.484295 -11.020635 -0.80515093 4283608932
-12.674501 -11.038756 -0.84913635 4286281519
-12.620643 -10.922816 -0.84114903 4286281519
-12.811724 -10.810229 -0.84608138 4286281519
-12.771542 -10.844813 -0.84509611 4286281519
-12.654438 -10.849264 -0.8401348 4286281519
-12.766167 -10.737292 -0.84109318 4286281519
-12.787714 -10.688236 -0.84008396 4286281519
-12.771042 -10.607222 -0.83608586 4286281519
10.918917 -10.605017 -0.8426556 4288372152
-12.791629 -10.556153 -0.83507681 4286281519
10.993149 -10.578448 -0.84465253 4288372152
-12.848475 -10.468409 -0.83505404 4286281519
-12.773965 -10.475114 -0.83107901 4286281519
10.974689 -10.462605 -0.83864051 4288372152
-12.897495 -10.441062 -0.8360365 4286281519
-12.86856 -10.384535 -0.83204353 4286281519
10.994242 -10.36855 -0.83513051 4288372152
11.040788 -10.396777 -0.83863324 4288372152
-12.952863 -10.252912 -0.83200943 4286281519
-12.870971 -10.288205 -0.82903838 4286281519
11.090511 -10.283257 -0.83562088 4288372152
-12.956751 -10.191417 -0.8290053 4286281519
11.114996 -10.178761 -0.83160943 4288372152
-12.987394 -10.132719 -0.82899237 4286281519
11.100724 -10.102218 -0.82760125 4288372152
11.212339 -10.141725 -0.83560479 4288372152
-13.015071 -10.040153 -0.82647872 4286281519
-13.037601 -9.960351 -0.82496738 4286281519
11.052666 -9.9650946 -0.81858659 4288372152
11.220509 -9.9925365 -0.82858837 4288372152
-13.079792 -9.9268551 -0.82595164 4286281519
11.069631 -9.918314 -0.81758136 4288372152
-13.07091 -9.8570356 -0.82295126 4286281519
-13.09837 -9.8131609 -0.82293987 4286281519
11.112638 -9.8336868 -0.81657159 4288372152
-13.163635 -9.7972603 -0.8249172 4286281519
11.17177 -9.7639446 -0.81556332 4288372152
11.237077 -9.7608147 -0.81956238 4288372152
-13.224449 -9.6818829 -0.82389098 4286281519
-13.138047 -9.6832275 -0.81992024 4286281519
11.185171 -9.684371 -0.81255418 4288372152
11.26154 -9.6901674 -0.81755412 4288372152
-13.214582 -9.6120453 -0.82089084 4286281519
-13.221423 -9.5536451 -0.81888562 4286281519
11.272388 -9.5787916 -0.81254131 4288372152
-13.261902 -9.5037212 -0.81936944 4286281519
11.254191 -9.5042686 -0.80853295 4288372152
11.332573 -9.5110626 -0.8125329 4288372152
11.395415 -9.5347891 -0.81753504 4288372152
-15.330774 -9.4515181 -0.82715529 4286281519
-13.323972 -9.4057903 -0.81884342 4286281519
-13.276832 -9.4361372 -0.81786096 4286281519
4.7754874 -9.3687925 -0.82853097 4286621738
-13.361228 -9.3076077 -0.81782573 4286281519
-13.322941 -9.3431854 -0.81684059 4286281519
-13.444197 -9.2088432 -0.81879234 4286281519
-13.384525 -9.2457495 -0.81681466 4286281519
-13.505118 -9.1878681 -0.8207705 4286281519
4.7213106 -9.1773071 -0.82501811 4286621738
11.401697 -9.170475 -0.80199218 4288372152
-13.594528 -9.1240721 -0.82373649 4286281519
-13.475578 -9.1065226 -0.81677628 4286281519
-13.579748 -9.0521212 -0.82073778 4286281519
4.7320037 -9.0790052 -0.82184535 4286621738
-13.649033 -9.0055914 -0.82271147 4286281519
-13.723757 -8.9929924 -0.8256852 4286281519
-13.581667 -8.9926004 -0.81873387 4286281519
-13.724699 -8.9011765 -0.82267988 4286281519
-14.164027 -8.8695278 -0.84452653 4286281519
-13.809269 -8.8635664 -0.82564867 4286281519
4.8182468 -8.8704967 -0.84883267 4286621738
-15.484475 -8.8240023 -0.81706303 4286281519
-13.959545 -8.8200407 -0.83259439 4286281519
-13.845658 -8.8249722 -0.82663399 4286281519
4.8870544 -8.81814 -0.84749645 4286621738
4.9305897 -8.7702894 -0.84482688 4286621738
4.9649272 -8.736805 -0.84349138 4286621738
6.0792456 -8.7143621 -0.83849239 4286621738
5.0135522 -8.6975794 -0.84315556 4286621738
