# .PCD v0.7 - Point Cloud Data file format
VERSION 0.7
FIELDS x y z rgb
SIZE 4 4 4 4
TYPE F F F U
COUNT 1 1 1 1
WIDTH 1114
HEIGHT 1
VIEWPOINT 0 0 0 1 0 0 0
POINTS 1114
DATA ascii
2.5260286 -16.339779 -1.2200989 4294958765
-8.114994 -16.294924 -1.2676146 4294958765
-7.9551907 -16.292912 -1.2616559 4294958765
-7.8872528 -16.283232 -1.2586733 4294958765
-7.7988038 -16.295 -1.2561963 4294958765
-7.6921391 -16.268394 -1.2507234 4294958765
-7.6530223 -16.316334 -1.2527337 4294958765
-7.5449581 -16.284716 -1.2467608 4294958765
2.6115012 -16.306152 -1.2181075 4294958765
2.6725817 -16.283854 -1.2166138 4294958765
2.7453752 -16.256411 -1.215621 4294958765
2.8415351 -16.215176 -1.2136303 4294958765
2.9132617 -16.182762 -1.2121371 4294958765
3.008913 -16.140553 -1.2101461 4294958765
3.0817833 -16.117641 -1.208653 4294958765
3.1296518 -16.099047 -1.2076575 4294958765
1.5010695 -16.005989 -1.2764777 4294958765
3.1774695 -16.077457 -1.2066618 4294958765
3.2259402 -16.065361 -1.2071663 4294958765
3.3238153 -16.038164 -1.2061753 4294958765
1.4496461 -15.986736 -1.2744713 4294958765
3.3934574 -15.998826 -1.2036811 4294958765
3.4811294 -15.969109 -1.2030221 4294958765
3.56058 -15.937833 -1.2016956 4294958765
3.6095543 -15.926255 -1.2016999 4294958765
1.3953978 -15.914521 -1.267464 4294958765
1.5660702 -15.893545 -1.2669845 4294958765
1.3105572 -15.773756 -1.2544523 4294958765
1.3646532 -15.836966 -1.2604594 4294958765
1.6552196 -15.785763 -1.2579939 4294958765
1.7025309 -15.764088 -1.2564993 4294958765
1.2561569 -15.691551 -1.2464449 4294958765
1.7470076 -15.719456 -1.252504 4294958765
7.6732864 -15.735451 -1.200968 4294958765
7.7221541 -15.712126 -1.2009692 4294958765
7.789916 -15.697646 -1.2019718 4294958765
2.1019559 -15.609521 -1.2465429 4294958765
7.8566227 -15.679188 -1.2029737 4294958765
-9.1697044 -15.524879 -1.2553219 4294958765
-5.7966881 -15.539697 -1.2321819 4294958765
-5.5428257 -15.5218 -1.2232406 4294958765
2.1489055 -15.595881 -1.2455479 4294958765
2.2086046 -15.580572 -1.2450542 4294958765
2.2896049 -15.545982 -1.2425625 4294958765
2.3622205 -15.539013 -1.2435702 4294958765
-9.7641897 -15.459819 -1.2761554 4294958765
-6.1153326 -15.469311 -1.2366066 4294958765
-6.0582581 -15.500913 -1.2371203 4294958765
-5.9707174 -15.490854 -1.2336409 4294958765
-5.89083 -15.497961 -1.2321597 4294958765
-5.8194723 -15.457334 -1.2261763 4294958765
-5.7215462 -15.488001 -1.2256992 4294958765
-5.6454883 -15.504206 -1.2242168 4294958765
-5.5770435 -15.467656 -1.2192326 4294958765
-5.466795 -15.464105 -1.2162578 4294958765
-5.4183278 -15.479967 -1.2162689 4294958765
2.4293296 -15.496626 -1.2405766 4294958765
2.512063 -15.477537 -1.2395852 4294958765
2.5702388 -15.45928 -1.2385907 4294958765
-9.3157578 -15.386106 -1.2517793 4294958765
-9.1730642 -15.422242 -1.2483193 4294958765
-6.2579875 -15.374849 -1.234072 4294958765
-6.1894884 -15.413157 -1.2345886 4294958765
-5.3727655 -15.426974 -1.2102792 4294958765
-5.3205132 -15.431766 -1.2092911 4294958765
-5.2331266 -15.41378 -1.2053107 4294958765
-5.1486168 -15.401858 -1.2013297 4294958765
-5.1068439 -15.432876 -1.2033391 4294958765
1.7667695 -15.42717 -1.2265031 4294958765
2.6160717 -15.437685 -1.2375951 4294958765
2.688767 -15.435247 -1.2381024 4294958765
2.7592616 -15.418844 -1.2376093 4294958765
2.8324823 -15.369922 -1.2346157 4294958765
-9.5398493 -15.321237 -1.2572159 4294958765
-9.4449129 -15.329687 -1.2532424 4294958765
-9.3874598 -15.342128 -1.2522587 4294958765
-6.5310588 -15.292555 -1.2370054 4294958765
-6.4073429 -15.332501 -1.2350357 4294958765
-6.3626533 -15.358387 -1.2360466 4294958765
-6.3026743 -15.348959 -1.2330611 4294958765
2.0218866 -15.344623 -1.2215308 4294958765
2.9160607 -15.332871 -1.2326232 4294958765
2.9860737 -15.316998 -1.2326298 4294958765
3.0538325 -15.284163 -1.2306356 4294958765
-7.5710521 -15.226393 -1.2697439 4294958765
-7.2038026 -15.257139 -1.257838 4294958765
-7.1293077 -15.224349 -1.2528565 4294958765
-7.0736418 -15.258408 -1.2533708 4294958765
-6.9757891 -15.203588 -1.2458949 4294958765
-6.8099847 -15.21848 -1.2409363 4294958765
-6.768146 -15.251398 -1.2419468 4294958765
-6.689043 -15.233494 -1.2374663 4294958765
-6.5847282 -15.221972 -1.2329919 4294958765
-6.4386778 -15.273849 -1.2320278 4294958765
-1.3182483 -15.216955 -1.2055748 4294958765
1.8174728 -15.224455 -1.2085066 4294958765
1.9634459 -15.257428 -1.2125232 4294958765
3.0741642 -15.265916 -1.2296374 4294958765
3.1447129 -15.252552 -1.2296438 4294958765
3.2355342 -15.217453 -1.2281514 4294958765
3.3070858 -15.205091 -1.2276578 4294958765
-7.8523912 -15.135712 -1.2746699 4294958765
-7.8085761 -15.16653 -1.2746817 4294958765
-7.7413092 -15.180792 -1.2731993 4294958765
-7.6071444 -15.182393 -1.2677342 4294958765
-7.4667048 -15.137946 -1.2587698 4294958765
-7.3789268 -15.13874 -1.2557924 4294958765
-7.3156595 -15.187561 -1.256809 4294958765
-7.2014971 -15.134313 -1.2488374 4294958765
-6.8907871 -15.146591 -1.2379156 4294958765
-6.8518233 -15.185564 -1.2399256 4294958765
-1.5215082 -15.127687 -1.2000413 4294958765
-1.4795507 -15.173913 -1.2030482 4294958765
-1.4096389 -15.183626 -1.2035598 4294958765
-1.2672728 -15.176026 -1.2020831 4294958765
1.8954096 -15.18387 -1.2055148 4294958765
3.3477135 -15.166615 -1.2256607 4294958765
3.3926251 -15.148584 -1.2246644 4294958765
6.1540542 -15.137716 -1.200864 4294958765
6.2056255 -15.130775 -1.2023666 4294958765
6.2837825 -15.123609 -1.2038707 4294958765
-8.0002136 -15.073626 -1.2756305 4294958765
-7.9467573 -15.087226 -1.2746446 4294958765
-7.9000468 -15.112976 -1.2746571 4294958765
-7.3989081 -15.11928 -1.2547871 4294958765
3.4818625 -15.10704 -1.2221714 4294958765
3.5732999 -15.078978 -1.2221788 4294958765
3.6407084 -15.054203 -1.2206841 4294958765
6.3567319 -15.100515 -1.2048738 4294958765
6.4522562 -15.100206 -1.2083789 4294958765
6.5196581 -15.096646 -1.2098823 4294958765
6.5988178 -15.089499 -1.2123863 4294958765
6.6727848 -15.067422 -1.2128891 4294958765
6.7478137 -15.049337 -1.2143922 4294958765
6.82901 -15.045189 -1.2168961 4294958765
-7.5769057 -15.008989 -1.2537401 4294958765
1.0759909 -15.00217 -1.2774169 4294958765
1.1445372 -14.988646 -1.2764252 4294958765
3.6589341 -15.028003 -1.2186852 4294958765
3.7257299 -14.996246 -1.21769 4294958765
3.7958241 -14.984452 -1.2176956 4294958765
6.930553 -15.021916 -1.2184 4294958765
7.0137849 -15.020761 -1.2209039 4294958765
7.0770645 -15.005792 -1.2224063 4294958765
7.1694384 -14.992102 -1.2244099 4294958765
7.2413549 -14.9641 -1.2249119 4294958765
7.2964787 -14.960689 -1.2269143 4294958765
1.2335823 -14.936823 -1.2719356 4294958765
1.3245366 -14.911987 -1.2704463 4294958765
1.3936781 -14.90498 -1.2699544 4294958765
3.8343787 -14.940035 -1.2146978 4294958765
3.8835828 -14.942479 -1.2167019 4294958765
3.9546015 -14.899039 -1.2140399 4294958765
7.3505645 -14.954292 -1.2289164 4294958765
7.4133215 -14.936857 -1.2294183 4294958765
7.4811902 -14.929367 -1.2319208 4294958765
7.5561628 -14.905863 -1.2324228 4294958765
1.4830029 -14.870687 -1.2674644 4294958765
1.5729156 -14.842398 -1.2654746 4294958765
1.651083 -14.816786 -1.2639832 4294958765
1.7084063 -14.807978 -1.2634895 4294958765
4.0554705 -14.847615 -1.2117133 4294958765
4.1223936 -14.822895 -1.211718 4294958765
4.1673374 -14.806415 -1.210721 4294958765
1.7523385 -14.79136 -1.2624943 4294958765
1.7974181 -14.78473 -1.2624992 4294958765
1.8780075 -14.747277 -1.2598408 4294958765
1.975234 -14.725774 -1.2585179 4294958765
4.2096834 -14.781971 -1.2097236 4294958765
4.2985907 -14.749037 -1.2087294 4294958765
4.3655009 -14.723342 -1.2087338 4294958765
2.0405815 -14.697383 -1.2565246 4294958765
2.1086264 -14.683462 -1.2560315 4294958765
2.1864011 -14.663917 -1.2555394 4294958765
2.2410779 -14.643688 -1.2545449 4294958765
4.4469686 -14.695836 -1.2084056 4294958765
4.5240331 -14.678711 -1.208744 4294958765
4.5648365 -14.650309 -1.2067462 4294958765
2.2828598 -14.616136 -1.2515488 4294958765
2.3504395 -14.603745 -1.2515554 4294958765
2.4287822 -14.58872 -1.2515631 4294958765
2.4834931 -14.57051 -1.2505682 4294958765
4.6118603 -14.639832 -1.2077491 4294958765
4.6788497 -14.618165 -1.2077532 4294958765
4.7531257 -14.618912 -1.2097583 4294958765
4.8457084 -14.598001 -1.210264 4294958765
4.915772 -14.582818 -1.2107682 4294958765
4.9910612 -14.584578 -1.2137733 4294958765
5.0647702 -14.580362 -1.2152779 4294958765
5.1619849 -14.569934 -1.2172837 4294958765
2.526408 -14.551957 -1.2495722 4294958765
2.5928893 -14.532606 -1.2490784 4294958765
2.6798205 -14.502502 -1.2475863 4294958765
2.7228124 -14.48846 -1.2465901 4294958765
5.2331176 -14.558765 -1.2187878 4294958765
5.3238645 -14.552914 -1.2207932 4294958765
5.4019208 -14.534204 -1.2217973 4294958765
5.4781828 -14.533998 -1.2238019 4294958765
5.5502954 -14.521849 -1.2248058 4294958765
5.6117053 -14.516296 -1.2268091 4294958765
5.7028117 -14.519972 -1.2298145 4294958765
5.7958603 -14.494673 -1.2308187 4294958765
5.8705487 -14.488023 -1.2328227 4294958765
5.9713254 -14.481153 -1.2358279 4294958765
6.1017671 -14.481033 -1.2408348 4294958765
-6.5248914 -14.423846 -1.2630012 4294958765
-6.4049802 -14.40094 -1.2570305 4294958765
-6.1123276 -14.404801 -1.2461017 4294958765
-6.0327172 -14.465782 -1.2481213 4294958765
-5.9543009 -14.436937 -1.2431399 4294958765
-5.8641167 -14.441765 -1.2401613 4294958765
-5.7781687 -14.424734 -1.2351816 4294958765
-5.3835258 -14.40941 -1.2202736 4294958765
-5.3285055 -14.401132 -1.2182863 4294958765
-4.9239473 -14.401747 -1.2053778 4294958765
-4.8515291 -14.40808 -1.2038939 4294958765
-4.7355466 -14.434407 -1.2024195 4294958765
-0.67455345 -14.419427 -1.2201749 4294958765
-0.60073417 -14.430146 -1.2205194 4294958765
-0.51842993 -14.417724 -1.2191982 4294958765
2.7667785 -14.473909 -1.245594 4294958765
2.8311343 -14.44511 -1.2445996 4294958765
2.9170675 -14.414051 -1.2431068 4294958765
5.9185762 -14.476618 -1.2338248 4294958765
6.0454583 -14.470529 -1.2378314 4294958765
6.1415629 -14.449739 -1.2388356 4294958765
6.2039652 -14.443221 -1.2408385 4294958765
6.2955136 -14.441959 -1.2438431 4294958765
6.3644958 -14.417924 -1.2448456 4294958765
6.4416962 -14.412302 -1.2468491 4294958765
6.552691 -14.423387 -1.251855 4294958765
-6.6844206 -14.357906 -1.2639612 4294958765
-6.6125679 -14.351139 -1.260479 4294958765
-6.553184 -14.370637 -1.2599938 4294958765
-6.4543748 -14.391169 -1.2580184 4294958765
-6.3383574 -14.372356 -1.2520467 4294958765
-6.2650294 -14.329636 -1.2450644 4294958765
-6.2108827 -14.32682 -1.2430775 4294958765
-6.1530724 -14.377832 -1.2450918 4294958765
-6.0562901 -14.396459 -1.2431152 4294958765
-5.4506769 -14.320104 -1.2152578 4294958765
-5.4309139 -14.399536 -1.2212626 4294958765
-5.2991276 -14.389458 -1.2162929 4294958765
-5.2251081 -14.329801 -1.2083095 4294958765
-5.1483679 -14.327017 -1.205827 4294958765
-5.0631657 -14.368494 -1.2068465 4294958765
-4.977438 -14.376005 -1.2048657 4294958765
-4.771512 -14.394266 -1.2004116 4294958765
-1.4489104 -14.325352 -1.2170529 4294958765
-1.4050956 -14.332541 -1.2170601 4294958765
-1.3152784 -14.328887 -1.2160747 4294958765
-1.248494 -14.328664 -1.2160856 4294958765
-1.1590676 -14.332037 -1.2150998 4294958765
-0.42782813 -14.370165 -1.2142115 4294958765
2.9917216 -14.38414 -1.2416131 4294958765
3.0679526 -14.360218 -1.2411194 4294958765
3.153389 -14.328697 -1.2396264 4294958765
6.5147791 -14.396733 -1.2478521 4294958765
6.5883946 -14.383164 -1.2498549 4294958765
6.6666393 -14.380049 -1.2523584 4294958765
6.7678585 -14.367276 -1.2553625 4294958765
6.8485832 -14.337701 -1.2563647 4294958765
6.9114103 -14.325741 -1.257867 4294958765
-7.235013 -14.241944 -1.2778208 4294958765
-6.7477365 -14.264653 -1.2589446 4294958765
-6.709825 -14.299644 -1.2599545 4294958765
-5.6744471 -14.300435 -1.2212055 4294958765
-5.5592184 -14.302195 -1.2177324 4294958765
-5.4828086 -14.272924 -1.2122501 4294958765
-2.0280619 -14.28633 -1.220955 4294958765
-1.9810936 -14.273424 -1.2189631 4294958765
-1.9133145 -14.27312 -1.2179748 4294958765
-1.821175 -14.259357 -1.2159907 4294958765
-1.7299632 -14.249623 -1.2130061 4294958765
-1.645014 -14.282019 -1.2155204 4294958765
-1.5573829 -14.296373 -1.215535 4294958765
-1.4932165 -14.318174 -1.2170457 4294958765
-1.2016609 -14.307811 -1.213093 4294958765
-1.1305817 -14.26652 -1.2081043 4294958765
-0.46909025 -14.304864 -1.2072052 4294958765
3.2504501 -14.278056 -1.2363003 4294958765
3.3220646 -14.252217 -1.2356393 4294958765
3.3651381 -14.242716 -1.2356427 4294958765
6.9860344 -14.312198 -1.2593694 4294958765
7.081604 -14.285529 -1.2613722 4294958765
7.1414075 -14.296066 -1.2648753 4294958765
-7.33395 -14.216512 -1.2797951 4294958765
-7.2054696 -14.239202 -1.2758284 4294958765
-7.1223602 -14.186209 -1.2678492 4294958765
-6.8909574 -14.166422 -1.2569078 4294958765
-6.7712231 -14.202357 -1.2549382 4294958765
-5.5974622 -14.239687 -1.2132233 4294958765
-2.1279635 -14.205284 -1.2149374 4294958765
-2.0642703 -14.228041 -1.2159487 4294958765
-1.9513001 -14.227855 -1.2139684 4294958765
-1.8592339 -14.20909 -1.2109842 4294958765
-1.7671722 -14.190335 -1.2079998 4294958765
-1.6822696 -14.219724 -1.2100142 4294958765
3.4038301 -14.207277 -1.2326452 4294958765
3.4841011 -14.189355 -1.233318 4294958765
7.1300607 -14.161403 -1.2528681 4294958765
7.213902 -14.219678 -1.2608743 4294958765
-6.9667497 -14.099462 -1.2548881 4294958765
-6.9211593 -14.118277 -1.2538998 4294958765
-6.8011684 -14.098306 -1.24793 4294958765
-6.7697439 -14.089538 -1.2459378 4294958765
-2.2047365 -14.126801 -1.208424 4294958765
3.574254 -14.14634 -1.2311578 4294958765
3.6392989 -14.12861 -1.2306625 4294958765
3.7017126 -14.100922 -1.2296667 4294958765
-2.2782967 -14.032267 -1.200911 4294958765
-2.237658 -14.05746 -1.2019181 4294958765
1.8364891 -14.062188 -1.2794946 4294958765
1.8790054 -14.050105 -1.2789989 4294958765
1.9646125 -14.030937 -1.2780076 4294958765
2.0496788 -14.008787 -1.2765161 4294958765
3.7945902 -14.0729 -1.22934 4294958765
3.8953056 -14.043307 -1.2291801 4294958765
3.9588215 -14.022127 -1.2286844 4294958765
4.0401444 -14.007258 -1.2293566 4294958765
-6.9632955 -13.986605 -1.2448881 4294958765
0.052282024 -13.925075 -1.2542778 4294958765
0.11620357 -13.963534 -1.2587866 4294958765
2.1239958 -13.989792 -1.2755234 4294958765
2.1960881 -13.955338 -1.2735301 4294958765
2.280664 -13.933225 -1.2725382 4294958765
4.1356149 -13.986253 -1.2296963 4294958765
4.1954565 -13.951643 -1.2286996 4294958765
4.2641973 -13.947426 -1.2297043 4294958765
4.3468008 -13.948566 -1.2322099 4294958765
4.4252443 -13.93677 -1.2337151 4294958765
4.5149345 -13.92137 -1.2347205 4294958765
4.6570144 -13.920947 -1.2387298 4294958765
0.0094407089 -13.884772 -1.2502717 4294958765
2.3641744 -13.906137 -1.270546 4294958765
2.4266078 -13.881333 -1.2695515 4294958765
2.5101438 -13.855765 -1.268059 4294958765
4.5949144 -13.912573 -1.2362256 4294958765
4.6990047 -13.904546 -1.238732 4294958765
4.7713351 -13.907332 -1.2412367 4294958765
4.8518295 -13.899055 -1.2427415 4294958765
4.9343491 -13.893766 -1.2447464 4294958765
5.0004482 -13.877651 -1.2457497 4294958765
5.0737696 -13.879955 -1.2482543 4294958765
5.1557741 -13.872696 -1.2507589 4294958765
5.2377567 -13.863946 -1.2522633 4294958765
5.3289795 -13.849127 -1.2542678 4294958765
5.4494009 -13.843547 -1.2577744 4294958765
-1.0660942 -13.785336 -1.2456141 4294958765
-0.9266569 -13.786829 -1.2451357 4294958765
-0.60497397 -13.765158 -1.2401841 4294958765
-0.20123681 -13.782762 -1.2402422 4294958765
-0.11664359 -13.79385 -1.2412541 4294958765
-0.03193257 -13.812447 -1.2427659 4294958765
0.18123434 -13.821959 -1.2442948 4294958765
2.5925875 -13.823723 -1.2665662 4294958765
2.6824217 -13.793098 -1.2649072 4294958765
2.7585864 -13.767156 -1.2635802 4294958765
5.3991394 -13.839004 -1.2557713 4294958765
5.4934616 -13.831667 -1.2587762 4294958765
5.5620995 -13.818575 -1.2597795 4294958765
5.634304 -13.811949 -1.2617829 4294958765
5.7178097 -13.804235 -1.2637869 4294958765
5.7992525 -13.791052 -1.2657906 4294958765
5.8919706 -13.775288 -1.2677945 4294958765
5.966773 -13.77516 -1.2707982 4294958765
6.0384531 -13.765578 -1.2728013 4294958765
-1.6250178 -13.702671 -1.244024 4294958765
-1.5594215 -13.689435 -1.2420349 4294958765
-1.4748256 -13.699847 -1.2420487 4294958765
-1.4117821 -13.713673 -1.242559 4294958765
-1.3218054 -13.734006 -1.2430736 4294958765
-1.2232399 -13.748693 -1.2435893 4294958765
-1.1589402 -13.748019 -1.2430995 4294958765
-1.1165848 -13.757249 -1.2431061 4294958765
-0.9880271 -13.753428 -1.2421262 4294958765
-0.85867977 -13.737116 -1.239146 4294958765
-0.76748246 -13.752002 -1.2401599 4294958765
-0.66722924 -13.738241 -1.2381747 4294958765
-0.52451199 -13.71976 -1.2351958 4294958765
-0.43278569 -13.726682 -1.2357091 4294958765
-0.34868571 -13.737748 -1.2362212 4294958765
-0.27447587 -13.743991 -1.2362318 4294958765
2.7985039 -13.746668 -1.2625835 4294958765
2.8416772 -13.744137 -1.2635871 4294958765
2.9085515 -13.710995 -1.2609257 4294958765
2.9841034 -13.68742 -1.2605984 4294958765
6.0107489 -13.757819 -1.2707996 4294958765
6.104476 -13.742569 -1.2733033 4294958765
6.2017841 -13.734291 -1.2768075 4294958765
6.2939291 -13.712585 -1.2783107 4294958765
6.3446283 -13.712183 -1.2798129 4294958765
-1.9549482 -13.602003 -1.2384682 4294958765
-1.8707938 -13.615374 -1.2384825 4294958765
-1.8095887 -13.637693 -1.239993 4294958765
-1.7259266 -13.651091 -1.240007 4294958765
-1.6637979 -13.669409 -1.2410175 4294958765
-1.5765764 -13.65776 -1.238032 4294958765
-1.5136209 -13.665575 -1.2380424 4294958765
3.0271931 -13.679904 -1.2606019 4294958765
3.0860357 -13.646212 -1.2581062 4294958765
3.1572595 -13.618378 -1.2571115 4294958765
-4.7581677 -13.551851 -1.2189133 4294958765
-4.6693897 -13.569782 -1.2174331 4294958765
-4.5857639 -13.5334 -1.2109516 4294958765
-4.2210555 -13.556591 -1.2015305 4294958765
-2.5895095 -13.526632 -1.2423551 4294958765
-2.5090199 -13.557491 -1.2438698 4294958765
-2.4432342 -13.555665 -1.2428818 4294958765
-2.3615241 -13.545695 -1.2398967 4294958765
-2.2694497 -13.551191 -1.2384131 4294958765
-2.1839294 -13.556496 -1.2379282 4294958765
-2.1164124 -13.539167 -1.2349402 4294958765
-2.0507681 -13.574208 -1.2372849 4294958765
3.2264142 -13.584578 -1.2551165 4294958765
3.3084517 -13.557135 -1.2541225 4294958765
3.3889122 -13.523724 -1.2531281 4294958765
-5.3993759 -13.47054 -1.234267 4294958765
-5.3174663 -13.449116 -1.2292861 4294958765
-5.2484741 -13.456465 -1.2273021 4294958765
-4.9544029 -13.443546 -1.2153692 4294958765
-4.8484077 -13.498008 -1.2167265 4294958765
-4.5012145 -13.493004 -1.2044699 4294958765
-4.4502563 -13.478854 -1.2014811 4294958765
-2.6203148 -13.466279 -1.2368495 4294958765
3.4289362 -13.509273 -1.2526308 4294958765
3.4915354 -13.49357 -1.2526352 4294958765
3.5725429 -13.463175 -1.2511406 4294958765
3.6361892 -13.450974 -1.2516451 4294958765
9.9009151 -13.511481 -1.2349052 4294958765
9.937767 -13.474433 -1.2349031 4294958765
-6.7131782 -13.362577 -1.2799464 4294958765
-6.5090823 -13.371416 -1.270998 4294958765
-6.4504666 -13.408873 -1.2720129 4294958765
-6.3657126 -13.410751 -1.2683674 4294958765
-6.2625237 -13.391219 -1.2620595 4294958765
-6.208426 -13.384888 -1.2590727 4294958765
-6.1344833 -13.390047 -1.256591 4294958765
-6.050024 -13.370996 -1.2511115 4294958765
-5.9495621 -13.371525 -1.2471359 4294958765
-5.8852606 -13.393911 -1.2461516 4294958765
-5.8051414 -13.383472 -1.2421708 4294958765
-5.5518308 -13.366854 -1.231231 4294958765
-5.4797463 -13.409055 -1.2315814 4294958765
-5.1381078 -13.391935 -1.2173274 4294958765
-5.0733228 -13.379422 -1.2143421 4294958765
-5.0157704 -13.41602 -1.2148552 4294958765
-4.9053001 -13.436406 -1.2133803 4294958765
-2.6722729 -13.403362 -1.23184 4294958765
3.6762166 -13.436539 -1.2516477 4294958765
3.718307 -13.427582 -1.2521505 4294958765
3.8009276 -13.404694 -1.2516559 4294958765
3.8872213 -13.394771 -1.2531618 4294958765
3.9514399 -13.38659 -1.2536662 4294958765
4.0387597 -13.378673 -1.2556717 4294958765
4.1045566 -13.375986 -1.2576764 4294958765
4.1923585 -13.367083 -1.2591819 4294958765
9.9726267 -13.4364 -1.2339008 4294958765
10.01453 -13.405313 -1.2338991 4294958765
-6.6856189 -13.359886 -1.2779535 4294958765
-6.6295428 -13.352485 -1.2749676 4294958765
-5.7130995 -13.343796 -1.2351925 4294958765
-5.629231 -13.319798 -1.2292125 4294958765
-5.5886073 -13.339784 -1.2302222 4294958765
-2.7195129 -13.32636 -1.2248313 4294958765
-0.40891415 -13.298727 -1.2782115 4294958765
4.1445565 -13.359581 -1.2566785 4294958765
4.2786283 -13.354709 -1.2606871 4294958765
4.3669853 -13.348819 -1.2631927 4294958765
4.4445548 -13.344046 -1.2646973 4294958765
4.5220928 -13.337282 -1.2667019 4294958765
4.6114302 -13.330414 -1.2692072 4294958765
4.6756067 -13.318302 -1.2697107 4294958765
4.7501903 -13.310593 -1.2720481 4294958765
4.8558002 -13.305593 -1.2747207 4294958765
4.9209986 -13.294992 -1.2757241 4294958765
4.9966216 -13.28963 -1.2783947 4294958765
10.059177 -13.335354 -1.2313945 4294958765
10.119049 -13.287251 -1.2308918 4294958765
-6.532166 -13.262216 -1.2629915 4294958765
-2.7690721 -13.258907 -1.2193222 4294958765
-1.3063496 -13.206722 -1.2760761 4294958765
-0.99726397 -13.20107 -1.2711244 4294958765
-0.89516348 -13.203235 -1.27114 4294958765
-0.85395527 -13.202499 -1.2701463 4294958765
-0.75188768 -13.202687 -1.2691615 4294958765
-0.67035013 -13.208252 -1.2691735 4294958765
-0.61096245 -13.241715 -1.2726822 4294958765
-0.51599312 -13.248566 -1.273196 4294958765
-0.44778758 -13.259391 -1.2742059 4294958765
0.61307484 -13.202028 -1.2663466 4294958765
10.129384 -13.258309 -1.2298898 4294958765
10.162203 -13.216314 -1.228887 4294958765
-2.8281429 -13.142678 -1.2088113 4294958765
-2.7969971 -13.19301 -1.2128171 4294958765
-1.875759 -13.134528 -1.2759823 4294958765
-1.8001453 -13.136066 -1.2749951 4294958765
-1.7130102 -13.153889 -1.2760097 4294958765
-1.6314182 -13.161831 -1.2755232 4294958765
-1.5520567 -13.185324 -1.2765363 4294958765
-1.4875287 -13.167606 -1.2735469 4294958765
-1.4042357 -13.158046 -1.2715604 4294958765
-1.3467726 -13.194473 -1.2750697 4294958765
-1.2359539 -13.18809 -1.2727538 4294958765
-1.1612576 -13.195051 -1.2730989 4294958765
-1.0972921 -13.173383 -1.269609 4294958765
-1.0076336 -13.196757 -1.2711228 4294958765
-0.93556982 -13.191958 -1.2701339 4294958765
-0.81286752 -13.193767 -1.2691524 4294958765
-0.77085954 -13.181021 -1.2671586 4294958765
-0.71071124 -13.199961 -1.2691675 4294958765
0.56972831 -13.129694 -1.2583407 4294958765
10.205159 -13.188226 -1.2288854 4294958765
10.241017 -13.150208 -1.2278829 4294958765
-2.999764 -13.055809 -1.2037787 4294958765
-2.9156857 -13.06254 -1.2027948 4294958765
-2.8629942 -13.108418 -1.2058048 4294958765
-2.1716158 -13.041355 -1.2719312 4294958765
-2.1115303 -13.055162 -1.2719417 4294958765
-2.0322213 -13.074594 -1.2729554 4294958765
-1.9716893 -13.085405 -1.2729659 4294958765
-1.9125446 -13.102248 -1.272976 4294958765
10.277904 -13.114181 -1.2278805 4294958765
10.342348 -13.07206 -1.2278781 4294958765
-3.0717211 -13.001856 -1.2007651 4294958765
-2.8885458 -12.966014 -1.2798003 4294958765
-2.8270464 -12.974225 -1.2788118 4294958765
-2.7529154 -12.972683 -1.2773257 4294958765
-2.6792517 -12.97316 -1.2753396 4294958765
-2.5980685 -12.984984 -1.2743545 4294958765
-2.517386 -12.99633 -1.2738693 4294958765
-2.4549928 -12.99906 -1.2733806 4294958765
-2.372457 -13.002888 -1.2713954 4294958765
-2.2782953 -13.019156 -1.2712456 4294958765
-2.2119725 -13.034161 -1.2719241 4294958765
0.26534325 -12.991495 -1.2423017 4294958765
0.52517778 -12.981373 -1.2423344 4294958765
10.379238 -13.036039 -1.2278755 4294958765
10.446198 -12.995911 -1.2288731 4294958765
-3.0069749 -12.889042 -1.2747779 4294958765
-2.9393497 -12.914104 -1.2757907 4294958765
0.30481875 -12.943856 -1.2373065 4294958765
9.5599232 -12.937093 -1.2733568 4294958765
9.6151791 -12.907933 -1.2738553 4294958765
10.529095 -12.935302 -1.2288691 4294958765
10.599113 -12.899655 -1.2308669 4294958765
-5.1425619 -12.822825 -1.2513251 4294958765
-5.0944014 -12.81868 -1.2488362 4294958765
-4.889657 -12.826806 -1.2413831 4294958765
-3.071341 -12.850925 -1.2727654 4294958765
9.6429663 -12.861965 -1.2728523 4294958765
9.7033901 -12.818342 -1.2728498 4294958765
10.616539 -12.879665 -1.2298654 4294958765
10.693129 -12.851471 -1.2328638 4294958765
10.754547 -12.804418 -1.2328604 4294958765
-5.3905563 -12.745914 -1.2542671 4294958765
-5.3134894 -12.731073 -1.2497852 4294958765
-5.2083335 -12.758496 -1.2483097 4294958765
-5.1725988 -12.782602 -1.2483181 4294958765
-4.9899778 -12.790731 -1.2423601 4294958765
-4.9215918 -12.791608 -1.2393757 4294958765
-4.8422699 -12.763769 -1.2343936 4294958765
-4.7884173 -12.744525 -1.2304058 4294958765
-4.6814847 -12.760994 -1.2274299 4294958765
-4.5952921 -12.771468 -1.2254488 4294958765
-4.5236654 -12.758816 -1.2214649 4294958765
-4.3173566 -12.744569 -1.2125099 4294958765
-3.1489363 -12.742639 -1.2627505 4294958765
-3.1197684 -12.792987 -1.2677561 4294958765
9.7870932 -12.75137 -1.2725124 4294958765
10.835345 -12.753315 -1.2338568 4294958765
-5.7689066 -12.641355 -1.2611765 4294958765
-5.7071142 -12.661795 -1.2601914 4294958765
-5.6515555 -12.695368 -1.2607049 4294958765
-5.5252795 -12.678304 -1.253235 4294958765
-5.4625359 -12.697243 -1.2527499 4294958765
-5.3950281 -12.70409 -1.250266 4294958765
-5.2297602 -12.6991 -1.2433046 4294958765
-4.7279301 -12.70615 -1.2244194 4294958765
-4.4339976 -12.697309 -1.2124845 4294958765
-4.3633146 -12.688686 -1.2084999 4294958765
-4.1825986 -12.674555 -1.201539 4294958765
-4.0660195 -12.718861 -1.2015638 4294958765
-3.1855958 -12.682958 -1.2577435 4294958765
9.8766127 -12.678075 -1.272341 4294958765
10.878689 -12.672485 -1.2308502 4294958765
-5.8134546 -12.583564 -1.2571654 4294958765
-5.5342083 -12.59566 -1.2462326 4294958765
-3.2358658 -12.597092 -1.2497339 4294958765
9.9705353 -12.610752 -1.2725034 4294958765
10.918897 -12.600142 -1.2283444 4294958765
-6.3445911 -12.482098 -1.2730334 4294958765
-6.2802353 -12.546829 -1.27555 4294958765
-6.1139216 -12.509212 -1.2644247 4294958765
-6.0061789 -12.488547 -1.2571177 4294958765
-5.9578152 -12.536245 -1.25963 4294958765
-5.8883333 -12.541002 -1.2571468 4294958765
-3.2959311 -12.512943 -1.2427223 4294958765
10.057467 -12.547789 -1.2733325 4294958765
10.113384 -12.499242 -1.2728291 4294958765
10.163464 -12.482101 -1.273828 4294958765
-6.5267334 -12.452806 -1.2789872 4294958765
-3.4727156 -12.404879 -1.2366871 4294958765
-3.4067714 -12.439075 -1.2380337 4294958765
-3.3423417 -12.457988 -1.2377131 4294958765
10.222931 -12.438032 -1.2743249 4294958765
10.269978 -12.416926 -1.2758237 4294958765
10.904583 -12.466269 -1.2188326 4294958765
-6.368916 -12.388918 -1.2660267 4294958765
-6.1444387 -12.380242 -1.2540829 4294958765
-3.5458677 -12.370517 -1.2356725 4294958765
-3.5074329 -12.379662 -1.2346802 4294958765
10.299841 -12.374976 -1.2748203 4294958765
10.361835 -12.333399 -1.2753173 4294958765
10.871835 -12.351884 -1.2098223 4294958765
-3.6118813 -12.281551 -1.2281592 4294958765
-3.5654778 -12.299007 -1.2286686 4294958765
10.445845 -12.279295 -1.2763133 4294958765
10.511879 -12.241699 -1.2778105 4294958765
10.842123 -12.241473 -1.2008125 4294958765
-3.8171418 -12.175241 -1.223617 4294958765
-3.7383599 -12.188955 -1.2221334 4294958765
-3.6586597 -12.198162 -1.2206497 4294958765
10.531355 -12.225693 -1.2778093 4294958765
10.596399 -12.187611 -1.2788062 4294958765
-4.9808755 -12.080038 -1.2603613 4294958765
-4.8415689 -12.090176 -1.2553933 4294958765
-4.4164109 -12.080622 -1.2364885 4294958765
-4.0989008 -12.082252 -1.2245575 4294958765
-4.0596085 -12.118811 -1.2265658 4294958765
-3.9587879 -12.100693 -1.2209207 4294958765
-3.8587446 -12.11174 -1.2186084 4294958765
10.673349 -12.124598 -1.2793012 4294958765
10.73434 -12.080569 -1.2797976 4294958765
-5.3612432 -12.032379 -1.2722721 4294958765
-5.3029284 -12.052912 -1.2722859 4294958765
-5.2269154 -12.033585 -1.266804 4294958765
-5.139297 -12.037941 -1.2628245 4294958765
-5.0848403 -12.065575 -1.2633371 4294958765
-5.0069728 -12.038731 -1.2573552 4294958765
-4.905406 -12.058753 -1.2543786 4294958765
-4.7755394 -12.062137 -1.2494082 4294958765
-4.7122445 -12.012696 -1.2414227 4294958765
-4.5942197 -12.014892 -1.236949 4294958765
-4.5035691 -12.030231 -1.2344693 4294958765
-4.4377637 -12.025189 -1.2314838 4294958765
-4.3468075 -12.065514 -1.2325039 4294958765
-4.2772088 -12.05041 -1.2280191 4294958765
-4.1962414 -12.002586 -1.2195367 4294958765
-4.1456757 -12.036879 -1.2210476 4294958765
-3.5542696 -12.031971 -1.2776715 4294958765
10.737692 -12.047702 -1.2777946 4294958765
-5.7000628 -11.933966 -1.2791904 4294958765
-5.5477023 -11.996052 -1.2777276 4294958765
-5.4061384 -11.983571 -1.2697613 4294958765
-5.3070059 -11.963166 -1.2632849 4294958765
-4.6632566 -11.99855 -1.2384337 4294958765
-4.5776997 -11.99952 -1.2344527 4294958765
-3.6103313 -11.951291 -1.2706602 4294958765
-3.5823011 -11.99163 -1.2736658 4294958765
10.755455 -11.991884 -1.2757896 4294958765
-5.4424033 -11.916587 -1.2652525 4294958765
-3.6601174 -11.874475 -1.2636503 4294958765
10.742948 -11.903323 -1.2687815 4294958765
-3.8000839 -11.787221 -1.2591213 4294958765
-3.7256541 -11.807514 -1.2586368 4294958765
10.725405 -11.809805 -1.2607729 4294958765
-3.8681901 -11.711349 -1.2532738 4294958765
10.712933 -11.72324 -1.2547649 4294958765
-4.0176144 -11.601901 -1.2475758 4294958765
-3.9638295 -11.62064 -1.2470872 4294958765
-3.9138343 -11.650457 -1.2485977 4294958765
10.710549 -11.647593 -1.248758 4294958765
-4.1699648 -11.520538 -1.2445431 4294958765
-4.0933228 -11.559206 -1.2455596 4294958765
-4.0493636 -11.577664 -1.245569 4294958765
10.70313 -11.566987 -1.2437503 4294958765
-4.5944695 -11.449683 -1.2554493 4294958765
-4.4883595 -11.445153 -1.250473 4294958765
-4.3327837 -11.467431 -1.2455076 4294958765
-4.276454 -11.453121 -1.2415199 4294958765
-4.2037811 -11.449417 -1.2385359 4294958765
-4.1211004 -11.499422 -1.2405537 4294958765
10.681093 -11.471502 -1.2352414 4294958765
-4.6503024 -11.387117 -1.2514367 4294958765
-4.6233444 -11.42042 -1.2534428 4294958765
-4.520895 -11.397997 -1.2464658 4294958765
-4.4222879 -11.383666 -1.2404878 4294958765
-4.3723068 -11.411441 -1.2414989 4294958765
10.701785 -11.386828 -1.2307334 4294958765
-4.899312 -11.287819 -1.2523794 4294958765
-4.858397 -11.33624 -1.255389 4294958765
-4.6619925 -11.316507 -1.244434 4294958765
10.730583 -11.312584 -1.2277263 4294958765
-5.3979473 -11.214808 -1.2702614 4294958765
-5.3142543 -11.219702 -1.2662816 4294958765
-5.229074 -11.26649 -1.266302 4294958765
-5.1618276 -11.214914 -1.2583179 4294958765
-5.0871239 -11.237358 -1.2563356 4294958765
-4.9997597 -11.2768 -1.2563561 4294958765
-4.7528877 -11.240827 -1.2404133 4294958765
-4.6995411 -11.2615 -1.2404256 4294958765
10.760565 -11.22192 -1.2237177 4294958765
-5.6381159 -11.13005 -1.2742027 4294958765
-5.2330122 -11.18574 -1.258301 4294958765
-4.8932796 -11.138424 -1.2363808 4294958765
-4.3330793 -11.129892 -1.2785079 4294958765
-4.3032608 -11.157146 -1.2795146 4294958765
10.760442 -11.134838 -1.2177091 4294958765
-5.832139 -11.040209 -1.2761542 4294958765
-5.7011843 -11.08326 -1.272687 4294958765
-5.6448536 -11.06137 -1.2672007 4294958765
-5.5832467 -11.1097 -1.2692161 4294958765
-5.4783659 -11.075117 -1.2602415 4294958765
-5.3929677 -11.098415 -1.2577623 4294958765
-5.2999153 -11.104568 -1.2532848 4294958765
-4.5006161 -11.052516 -1.2774708 4294958765
-4.4399128 -11.073526 -1.2769843 4294958765
-4.3676248 -11.117733 -1.2785003 4294958765
10.789402 -11.095937 -1.2177052 4294958765
10.809296 -11.048108 -1.2157006 4294958765
-5.9149818 -11.028368 -1.2791334 4294958765
-5.7300558 -11.015648 -1.2671795 4294958765
-5.4716425 -10.980145 -1.2492429 4294958765
-5.3860393 -10.979982 -1.2452638 4294958765
-4.668211 -10.972199 -1.2764328 4294958765
-4.6064529 -10.985011 -1.2751135 4294958765
-4.5553527 -11.037359 -1.2784584 4294958765
10.799951 -10.970518 -1.2096928 4294958765
-4.8915181 -10.880829 -1.2783812 4294958765
-4.8204432 -10.904037 -1.2768977 4294958765
-4.7383671 -10.902527 -1.2724167 4294958765
-4.7008619 -10.955023 -1.2764254 4294958765
10.822869 -10.925671 -1.2086885 4294958765
-5.0586858 -10.800126 -1.2783419 4294958765
-5.019299 -10.804137 -1.2763512 4294958765
-4.9246883 -10.821257 -1.2733735 4294958765
-4.8435102 -10.86667 -1.2743925 4294958765
10.825635 -10.860985 -1.2046819 4294958765
-5.2061648 -10.722972 -1.2783066 4294958765
-5.0783739 -10.79862 -1.2793373 4294958765
-4.9751072 -10.799047 -1.2733617 4294958765
10.607186 -10.765115 -1.2796729 4294958765
10.642227 -10.734162 -1.2796698 4294958765
-5.3238974 -10.667062 -1.2782781 4294958765
-5.2564521 -10.68565 -1.2766279 4294958765
10.666186 -10.6923 -1.2786654 4294958765
-5.481029 -10.567781 -1.2767396 4294958765
-5.4171143 -10.605564 -1.2772553 4294958765
10.701556 -10.607621 -1.2753234 4294958765
10.710249 -10.507108 -1.2686464 4294958765
10.737152 -10.436893 -1.2656391 4294958765
10.764038 -10.365686 -1.2626315 4294958765
10.768302 -10.275148 -1.2571218 4294958765
-5.1739807 -10.203248 -1.2783138 4294958765
10.771549 -10.183125 -1.2511122 4294958765
10.77883 -10.095076 -1.2456027 4294958765
10.79479 -10.048285 -1.2435976 4294958765
10.799664 -9.9905844 -1.2405913 4294958765
10.816653 -9.9457846 -1.2385863 4294958765
10.829299 -9.8801117 -1.2350791 4294958765
10.842974 -9.8164291 -1.231572 4294958765
10.853844 -9.7348557 -1.2270628 4294958765
10.872782 -9.6612225 -1.2235545 4294958765
10.882737 -9.610486 -1.2215488 4294958765
10.895206 -9.5617332 -1.2190431 4294958765
10.922182 -9.4672127 -1.2150321 4294958765
10.987205 -9.3858738 -1.2148556 4294958765
11.041068 -9.3347225 -1.2155156 4294958765
11.035959 -9.2721033 -1.2105083 4294958765
11.047942 -9.2233667 -1.2085025 4294958765
11.064452 -9.1512642 -1.2054939 4294958765
11.163856 -9.0611086 -1.207482 4294958765
11.005778 -8.9769335 -1.2774739 4294958765
-15.615814 -8.8905907 -1.259021 4294958765
-14.202744 -8.9431877 -1.2615174 4294958765
11.191872 -8.9129639 -1.2004639 4294958765
11.115747 -8.8683834 -1.2794595 4294958765
11.139848 -8.8315659 -1.2784547 4294958765
11.26993 -8.627615 -1.2764279 4294958765
14.007055 -4.03372 -1.2287018 4294958765
14.063659 -3.9792287 -1.2326919 4294958765
14.922023 -3.8810737 -1.2146649 4294958765
-24.447979 -2.7466898 -1.2012529 4294958765
-24.513784 -2.6556776 -1.2042191 4294958765
-24.575598 -2.5843468 -1.2071888 4294958765
-24.598551 -2.5078244 -1.2081727 4294958765
-24.647415 -2.4350939 -1.2111472 4294958765
-24.728251 -2.3247519 -1.2151058 4294958765
-24.690336 -2.3601949 -1.2131236 4294958765
-24.780176 -2.2501383 -1.2170787 4294958765
-24.817122 -2.1750507 -1.2190573 4294958765
-24.869059 -2.1004381 -1.2210305 4294958765
-24.921003 -2.025826 -1.2240033 4294958765
-24.95999 -1.9498132 -1.2259811 4294958765
-25.013971 -1.8742756 -1.2289531 4294958765
19.965422 7.4867206 -1.26686 4294958765
20.082447 7.4589367 -1.2738649 4294958765
4.0511265 9.0009003 -1.2505801 4294958765
3.8368449 9.1143742 -1.2525805 4294958765
3.8983121 9.0984135 -1.2540796 4294958765
3.9603086 9.0849514 -1.2560785 4294958765
4.0416636 9.0854902 -1.2459096 4294958765
3.7920115 9.1693163 -1.2579128 4294958765
3.877095 9.1290312 -1.2575787 4294958765
3.9708328 9.1787119 -1.2240739 4294958765
4.0398955 9.13941 -1.2229072 4294958765
3.6600633 9.2600985 -1.2625799 4294958765
3.713979 9.2122211 -1.2589134 4294958765
3.836509 9.2671375 -1.227574 4294958765
3.8948214 9.2540236 -1.2292395 4294958765
3.9433761 9.2343359 -1.2295722 4294958765
3.5577874 9.3433485 -1.2685801 4294958765
3.6359744 9.3237114 -1.2470782 4294958765
3.7223747 9.3214912 -1.2285753 4294958765
3.7982218 9.3386745 -1.2352389 4294958765
3.3053615 9.4374542 -1.2685863 4294958765
3.3782985 9.3908548 -1.2652516 4294958765
3.4738243 9.3906803 -1.2702481 4294958765
3.5572057 9.3805542 -1.2393286 4294958765
3.6253324 9.3797226 -1.2315763 4294958765
3.1732244 9.5042591 -1.2712563 4294958765
3.2341275 9.472065 -1.269588 4294958765
3.3151729 9.4623375 -1.272085 4294958765
3.3882542 9.5003014 -1.2352474 4294958765
3.4778864 9.4825287 -1.2372446 4294958765
3.5370557 9.458375 -1.2375765 4294958765
3.1596136 9.567153 -1.2560883 4294958765
3.2513511 9.5588112 -1.2362512 4294958765
3.3337586 9.5520649 -1.2395813 4294958765
20.865623 9.5583439 -1.2185918 4294958765
20.970547 9.5265608 -1.2235967 4294958765
3.158742 9.6335936 -1.2422529 4294958765
20.942066 9.6723452 -1.2255778 4294958765
2.9465353 9.7565155 -1.2495928 4294958765
3.004283 9.7279778 -1.2482574 4294958765
3.0880477 9.7241735 -1.2512535 4294958765
3.4813795 9.7530003 -1.2030685 4294958765
3.5261962 9.7311277 -1.2025673 4294958765
20.866207 9.7170086 -1.2225716 4294958765
2.8523598 9.8353844 -1.2565956 4294958765
2.9142103 9.8152847 -1.2560928 4294958765
3.3297312 9.8311234 -1.2062391 4294958765
3.3958597 9.805213 -1.2055703 4294958765
3.4427402 9.788805 -1.2055689 4294958765
2.7651215 9.8805656 -1.2585992 4294958765
2.8490615 9.8519039 -1.2580953 4294958765
3.1047702 9.9178286 -1.2075804 4294958765
3.1697083 9.9047184 -1.2085776 4294958765
3.2474926 9.8771753 -1.2082415 4294958765
21.030851 9.8736095 -1.2355529 4294958765
2.5897336 9.9759846 -1.2651069 4294958765
2.6786833 9.9615631 -1.2663521 4294958765
3.0234873 9.9855595 -1.2125827 4294958765
3.0667171 9.9586601 -1.2110813 4294958765
3.1491878 9.9463739 -1.2125775 4294958765
21.032164 9.9539375 -1.2385428 4294958765
2.5182493 10.024048 -1.269277 4294958765
2.8592896 10.06813 -1.2165896 4294958765
2.9203856 10.042535 -1.2162534 4294958765
2.980279 10.01396 -1.2145844 4294958765
20.983957 10.031816 -1.2375326 4294958765
2.3285253 10.141714 -1.2786199 4294958765
2.4408264 10.114996 -1.2786133 4294958765
2.4861145 10.094017 -1.2776108 4294958765
2.7739861 10.131954 -1.2220929 4294958765
2.8182015 10.105021 -1.2200909 4294958765
20.820827 10.134558 -1.2315186 4294958765
20.881636 10.08295 -1.2335255 4294958765
2.6397688 10.206306 -1.2265991 4294958765
2.6923676 10.20875 -1.2290959 4294958765
2.7313197 10.162374 -1.2245946 4294958765
20.680172 10.225891 -1.2255063 4294958765
20.766035 10.188148 -1.2295115 4294958765
2.5438638 10.299273 -1.2356032 4294958765
2.5946417 10.25209 -1.2312676 4294958765
20.699556 10.316139 -1.2294952 4294958765
2.5060682 10.35615 -1.2416046 4294958765
20.67367 10.343929 -1.2284917 4294958765
-35.22596 10.478736 -1.2100126 4294958765
2.3567188 10.454912 -1.2502794 4294958765
2.443125 10.428633 -1.2489406 4294958765
20.660988 10.41833 -1.2304823 4294958765
2.284987 10.517523 -1.2561167 4294958765
20.460571 10.559321 -1.2234638 4294958765
20.600376 10.509132 -1.2294707 4294958765
-35.105457 10.561177 -1.2069614 4294958765
2.2020893 10.616927 -1.2666212 4294958765
2.2420263 10.560493 -1.2606192 4294958765
20.400785 10.608962 -1.2214574 4294958765
-34.992081 10.673582 -1.2039106 4294958765
2.1476588 10.686529 -1.2746243 4294958765
20.474157 10.687283 -1.2274482 4294958765
-34.91835 10.799132 -1.2028736 4294958765
1.998127 10.729274 -1.2756351 4294958765
20.562763 10.815195 -1.2364333 4294958765
2.1434159 10.888504 -1.222622 4294958765
20.636349 10.937168 -1.2434189 4294958765
1.9688126 10.996545 -1.2326345 4294958765
1.8779845 11.08329 -1.2409745 4294958765
1.9467566 11.064792 -1.2406358 4294958765
20.705929 11.05617 -1.250405 4294958765
1.7137234 11.175638 -1.2491544 4294958765
1.7999158 11.151568 -1.2476473 4294958765
20.779533 11.17914 -1.2583907 4294958765
1.6521208 11.239902 -1.2556595 4294958765
1.5573944 11.330262 -1.2653341 4294958765
1.6238564 11.291752 -1.2616616 4294958765
1.877524 11.334568 -1.2136391 4294958765
20.823072 11.287251 -1.2643781 4294958765
1.4224248 11.403337 -1.2726797 4294958765
1.4747214 11.388657 -1.2711748 4294958765
1.7188668 11.431025 -1.2216523 4294958765
1.7795377 11.407269 -1.2201471 4294958765
20.854582 11.388431 -1.2683661 4294958765
1.3937432 11.459709 -1.2786821 4294958765
1.6501286 11.519381 -1.231658 4294958765
1.6805215 11.477001 -1.2266555 4294958765
20.861534 11.476732 -1.2718558 4294958765
1.5676587 11.590929 -1.2386651 4294958765
1.6186663 11.556778 -1.2356606 4294958765
20.821581 11.582935 -1.272343 4294958765
1.4818871 11.641036 -1.243173 4294958765
1.5356361 11.623838 -1.241668 4294958765
20.762854 11.634582 -1.2713367 4294958765
1.3971844 11.706643 -1.249681 4294958765
20.761301 11.718929 -1.2733268 4294958765
1.308854 11.79681 -1.259356 4294958765
20.793859 11.823096 -1.2783148 4294958765
1.1572287 11.898855 -1.2692046 4294958765
1.2286789 11.862885 -1.2661974 4294958765
1.4085963 11.894476 -1.2036792 4294958765
22.119024 11.873628 -1.2173148 4294958765
22.337151 11.901245 -1.2293125 4294958765
1.0977042 11.963169 -1.2767107 4294958765
1.2479399 11.982619 -1.2116952 4294958765
1.3093203 11.964461 -1.2100223 4294958765
1.3740822 11.926931 -1.2066824 4294958765
22.058323 11.930226 -1.216308 4294958765
1.1042085 12.064578 -1.21971 4294958765
1.1593566 12.042323 -1.2172043 4294958765
1.214507 12.020072 -1.2156986 4294958765
22.076841 12.02943 -1.2202964 4294958765
1.0176573 12.158777 -1.2297193 4294958765
1.0875627 12.087809 -1.2217119 4294958765
22.072308 12.116748 -1.2222861 4294958765
0.98317713 12.192259 -1.232723 4294958765
1.0578723 12.174218 -1.231715 4294958765
22.144751 12.20103 -1.2282766 4294958765
0.8669256 12.3039 -1.244736 4294958765
0.9306736 12.256497 -1.2397289 4294958765
22.123178 12.279435 -1.2292674 4294958765
0.78631431 12.392053 -1.2537452 4294958765
0.82270533 12.353532 -1.2497411 4294958765
22.040184 12.36881 -1.2272568 4294958765
0.71214181 12.443124 -1.2597539 4294958765
0.74983394 12.424579 -1.2577494 4294958765
21.96121 12.461162 -1.2262459 4294958765
0.63968199 12.540183 -1.2707626 4294958765
0.67830771 12.517619 -1.267758 4294958765
20.388004 12.539075 -1.2792317 4294958765
21.896523 12.513813 -1.2242395 4294958765
0.54613066 12.629561 -1.279774 4294958765
0.60336393 12.582717 -1.274767 4294958765
0.83466166 12.614372 -1.2027402 4294958765
21.823074 12.608156 -1.2232286 4294958765
21.865946 12.587277 -1.2252311 4294958765
0.75936294 12.678123 -1.2090824 4294958765
20.28434 12.672701 -1.2787166 4294958765
21.500641 12.692812 -1.2102178 4294958765
21.712021 12.680704 -1.2197199 4294958765
0.62659633 12.794393 -1.220765 4294958765
0.68387103 12.750554 -1.2162579 4294958765
20.22731 12.746721 -1.2782081 4294958765
21.489141 12.777185 -1.2122083 4294958765
0.54971987 12.862528 -1.2277744 4294958765
0.58830398 12.837957 -1.2257696 4294958765
20.138094 12.86794 -1.2771946 4294958765
20.18672 12.810304 -1.278201 4294958765
21.440523 12.83877 -1.2112013 4294958765
0.47193021 12.935688 -1.2357842 4294958765
0.51136988 12.902099 -1.2317792 4294958765
20.087463 12.923597 -1.2761884 4294958765
21.488955 12.913163 -1.2161931 4294958765
0.3745642 13.034155 -1.2457967 4294958765
0.43367028 12.980762 -1.2402892 4294958765
20.035835 12.979257 -1.2761822 4294958765
21.513588 13.019345 -1.2201813 4294958765
0.29481176 13.108368 -1.2538072 4294958765
0.3340703 13.063768 -1.2488019 4294958765
19.906773 13.117425 -1.2741671 4294958765
19.977829 13.052799 -1.2751741 4294958765
21.522181 13.116612 -1.2231705 4294958765
0.21509902 13.184591 -1.2618178 4294958765
0.25550866 13.14997 -1.2588124 4294958765
19.852139 13.170118 -1.2731613 4294958765
0.15373698 13.220538 -1.2658259 4294958765
0.19449016 13.20791 -1.2648206 4294958765
19.800529 13.225791 -1.2721553 4294958765
21.455091 13.259622 -1.2241545 4294958765
21.524761 13.210909 -1.2261602 4294958765
-0.011661124 13.309117 -1.2758483 4294958765
0.051261753 13.309135 -1.27584 4294958765
0.11274383 13.281178 -1.2728317 4294958765
19.731144 13.313763 -1.2716458 4294958765
21.303726 13.351113 -1.2201443 4294958765
21.363358 13.29645 -1.2211504 4294958765
19.639673 13.386374 -1.2696381 4294958765
21.278938 13.382909 -1.2201407 4294958765
0.037121389 13.489378 -1.2068431 4294958765
0.10043471 13.451389 -1.2028344 4294958765
19.575321 13.477329 -1.2691283 4294958765
21.182777 13.507113 -1.2191271 4294958765
21.243406 13.453434 -1.2201329 4294958765
-0.025792202 13.552369 -1.2138519 4294958765
19.474134 13.587708 -1.2681167 4294958765
19.537785 13.541935 -1.2691215 4294958765
21.138224 13.57269 -1.2191199 4294958765
-0.088302612 13.640364 -1.2228611 4294958765
-0.045772657 13.61469 -1.2198551 4294958765
19.416517 13.638443 -1.2671115 4294958765
21.077604 13.626374 -1.217114 4294958765
-0.17376593 13.728729 -1.2318735 4294958765
-0.13052845 13.685037 -1.2268672 4294958765
19.344158 13.723965 -1.2661027 4294958765
19.385015 13.707022 -1.2681043 4294958765
21.023169 13.707854 -1.2171052 4294958765
-0.26045832 13.802122 -1.2398862 4294958765
-0.21658525 13.798421 -1.2388799 4294958765
19.236961 13.828418 -1.2650919 4294958765
19.286543 13.773713 -1.2650975 4294958765
20.966734 13.788349 -1.2170966 4294958765
-0.32605323 13.883188 -1.247896 4294958765
-0.30362511 13.849822 -1.2448926 4294958765
19.20648 13.897997 -1.2660848 4294958765
20.854567 13.902678 -1.2150844 4294958765
20.910147 13.845016 -1.2160906 4294958765
-0.41400295 13.93962 -1.253909 4294958765
-0.37006938 13.939907 -1.2539027 4294958765
19.147877 13.947755 -1.2640798 4294958765
20.780914 13.947457 -1.2130797 4294958765
-0.59178364 14.058548 -1.2669358 4294958765
-0.52514029 14.043449 -1.264926 4294958765
-0.45881918 14.008359 -1.260916 4294958765
19.071522 14.029331 -1.2640717 4294958765
20.691851 14.075676 -1.2130662 4294958765
20.739389 14.013051 -1.2140727 4294958765
-0.66106874 14.156708 -1.2769469 4294958765
-0.61574507 14.119952 -1.2729399 4294958765
19.003212 14.116863 -1.2635629 4294958765
20.598457 14.154256 -1.2120579 4294958765
20.665068 14.104511 -1.2130632 4294958765
18.931898 14.202418 -1.2630545 4294958765
20.547909 14.213912 -1.2110519 4294958765
-0.52270669 14.318444 -1.2059281 4294958765
-0.47635397 14.283681 -1.2019209 4294958765
14.026954 14.313694 -1.2780701 4294958765
18.83782 14.315839 -1.2630434 4294958765
18.888378 14.262102 -1.2630486 4294958765
20.491341 14.269608 -1.2100462 4294958765
-0.54584754 14.368831 -1.2109319 4294958765
13.366342 14.389374 -1.2490717 4294958765
13.443172 14.38017 -1.2520714 4294958765
13.529097 14.381887 -1.2560703 4294958765
13.637997 14.383535 -1.2620687 4294958765
13.733783 14.371297 -1.2660687 4294958765
13.827755 14.37897 -1.271067 4294958765
13.86929 14.33307 -1.2710702 4294958765
13.949134 14.32487 -1.2750701 4294958765
18.77037 14.381531 -1.2615372 4294958765
20.38324 14.384972 -1.2090343 4294958765
20.430758 14.322331 -1.2090406 4294958765
-0.68582302 14.477159 -1.2219537 4294958765
-0.61617386 14.432999 -1.2174429 4294958765
13.154974 14.43187 -1.2400711 4294958765
13.20962 14.400833 -1.2410728 4294958765
13.295542 14.402543 -1.2460715 4294958765
18.697891 14.442266 -1.2610314 4294958765
20.28986 14.461589 -1.2070266 4294958765
20.322657 14.436708 -1.2080292 4294958765
-0.75507516 14.514819 -1.2254646 4294958765
18.60486 14.557698 -1.2600204 4294958765
18.646347 14.496015 -1.2600263 4294958765
20.23632 14.519279 -1.2070209 4294958765
-0.82743502 14.606544 -1.2349763 4294958765
18.545277 14.60451 -1.2590162 4294958765
20.117197 14.625747 -1.2050103 4294958765
20.175755 14.572016 -1.2060156 4294958765
-0.85342675 14.664989 -1.2409809 4294958765
18.439192 14.709051 -1.2580065 4294958765
18.494741 14.658265 -1.2590111 4294958765
20.069685 14.686416 -1.2050043 4294958765
-0.9275589 14.769753 -1.2509933 4294958765
15.021256 14.794392 -1.2510208 4294958765
15.104065 14.78322 -1.2550209 4294958765
18.363899 14.789692 -1.2579992 4294958765
18.427494 14.745844 -1.259003 4294958765
19.970303 14.758098 -1.2019974 4294958765
20.01214 14.741144 -1.2039989 4294958765
-1.049683 14.868344 -1.2620134 4294958765
-0.9998219 14.805486 -1.255005 4294958765
14.40367 14.871795 -1.2250211 4294958765
14.586461 14.872246 -1.2340189 4294958765
14.688211 14.858017 -1.237519 4294958765
14.791982 14.845778 -1.2420188 4294958765
14.858667 14.81972 -1.2440203 4294958765
14.951562 14.819458 -1.2490195 4294958765
15.218108 14.801811 -1.2610183 4294958765
15.283178 14.817552 -1.2650163 4294958765
15.388143 14.826222 -1.2710147 4294958765
15.479997 14.821006 -1.2750142 4294958765
18.318413 14.848417 -1.2579938 4294958765
19.862253 14.871529 -1.2009864 4294958765
19.926828 14.822743 -1.2029911 4294958765
